6.702204928664073,7.102464332036317,7.813488975356679,7.129182879377432,6.581841763942932,6.322438391699093,6.171206225680933,6.0586251621271074,6.162645914396887,6.464332036316472,7.128145265888457,8.00544747081712,7.746562905317769,7.121660181582361,6.867444876783399,6.383398184176395,6.190920881971465,6.279896238651103,6.872892347600519,8.334370946822308,10.043060959792477,9.657328145265888,9.460959792477302,9.889753566796369,10.30609597924773,10.324773022049285,8.954863813229572,8.186251621271076,8.148897535667963,8.384954604409858,8.841504539559015,9.452918287937743,8.569130998702983,7.928145265888457,7.92295719844358,7.605188067444877,7.42568093385214,7.9447470817120625,8.288975356679636,7.692347600518807,7.306874189364462,7.632944228274968,7.676005188067445,7.4062256809338525,7.619455252918288,7.45136186770428,7.420752269779507,7.5473411154345005,7.872892347600519,7.621530479896239
7.029831387808041,7.487678339818418,7.176394293125811,6.596368352788587,6.547341115434501,6.603112840466927,6.613748378728924,6.508171206225682,6.4798962386511025,6.972243839169909,8.611932555123216,8.529182879377432,7.403891050583658,7.351750972762646,7.024124513618677,6.523476005188068,6.363942931258107,6.456809338521401,6.9494163424124515,8.52503242542153,10.920622568093385,11.48586251621271,10.942412451361868,10.76083009079118,10.373281452658885,9.232166018158235,8.574837872892347,8.450324254215305,8.28456549935149,8.370687418936447,9.082230869001297,9.600518806744487,8.274967574578469,6.951750972762646,6.709987029831388,6.409857328145266,6.228274967574578,6.704798962386511,7.6433203631647215,7.42905317769131,6.690012970168612,6.863294422827497,6.998184176394293,6.6433203631647215,6.962905317769131,7.045654993514916,6.870038910505837,7.068741893644618,7.427756160830091,7.150194552529183
8.021271076523995,8.18184176394293,8.110246433203631,7.961089494163424,7.779247730220493,7.631387808041505,7.4879377431906615,6.9574578469520105,6.9141374837872895,7.567833981841764,7.889494163424125,7.016083009079118,6.6321660181582365,7.692347600518807,8.257328145265888,6.918287937743191,6.537743190661479,6.592477302204929,6.978728923476005,8.570687418936446,10.664072632944228,11.425940337224384,11.583916990920882,10.073151750972762,9.158495460440985,8.9284046692607,8.697276264591439,8.51828793774319,8.438651102464332,8.476264591439689,8.710246433203631,9.455252918287938,9.28041504539559,7.598702983138781,6.797405966277562,6.348897535667964,5.958754863813229,5.764461738002594,6.312581063553827,6.866407263294423,6.397146562905318,6.229831387808041,6.656809338521401,6.410635538261998,6.493125810635538,6.9125810635538265,6.612451361867705,6.6000000000000005,6.957976653696498,6.590661478599222
7.775875486381323,6.392217898832685,7.6881971465629055,8.644357976653696,8.311802853437094,9.26355382619974,9.77172503242542,8.382879377431907,7.971725032425422,7.2,5.976653696498055,5.477561608300908,5.572243839169909,7.0526588845655,8.290272373540855,7.077042801556421,6.704539559014267,6.751750972762646,6.807263294422828,7.4415045395590145,8.72036316472114,9.244876783398183,10.056290531776913,10.140337224383916,9.271335927367055,9.097016861219196,8.992217898832685,9.054993514915694,9.596887159533074,9.448249027237354,8.821011673151752,8.776134889753568,8.087418936446173,7.016083009079118,6.814267185473412,6.473151750972763,5.797665369649805,5.580025940337224,5.588586251621271,6.313618677042802,6.223605706874189,5.777172503242542,6.114137483787289,6.2778210116731525,6.133073929961089,7.045654993514916,6.848767833981842,6.160570687418936,6.567574578469521,6.220233463035019
6.7042801556420235,5.688975356679636,5.8822308690012965,6.715953307392996,7.1561608300907915,9.259403372243838,10.164980544747081,8.664072632944228,7.2876783398184175,5.990661478599222,5.257846952010376,5.162127107652399,5.856031128404669,7.099610894941635,7.477302204928664,6.930998702983139,6.863294422827497,6.985992217898833,7.128145265888457,7.309208819714657,7.657068741893645,8.225162127107652,9.026459143968872,10.310505836575874,10.548119325551232,9.963164721141375,10.015304798962386,10.483268482490272,10.87237354085603,9.457068741893645,8.055771725032425,7.163164721141375,6.423086900129702,6.111024643320363,6.005706874189364,6.224124513618676,6.025421530479896,5.406744487678339,5.135667963683527,5.702464332036316,6.327885862516213,5.9128404669260695,5.725291828793774,5.962645914396886,5.996887159533074,6.476523994811933,6.554863813229573,6.023865110246433,5.880933852140077,6.060700389105058
6.801037613488976,5.5105058365758754,5.369909208819714,5.80337224383917,6.4269779507133595,7.64254215304799,7.457068741893645,6.876523994811933,6.117250324254215,5.2876783398184175,5.049027237354085,4.945784695201038,5.301686121919585,5.799481193255512,6.76757457846952,7.159533073929961,7.828534370946822,8.171465629053177,7.536964980544747,7.6000000000000005,7.787808041504539,8.108949416342412,9.392217898832685,10.791439688715952,11.866147859922178,11.884824902723734,11.723994811932554,12.25214007782101,11.246433203631646,8.885862516212711,7.162905317769131,6.387289234760052,6.385473411154345,6.216601815823605,5.539559014267185,5.461219195849546,5.936186770428015,5.737224383916991,4.95201037613489,5.280674448767834,6.112581063553826,6.030609597924773,5.611932555123216,5.762645914396887,6.290531776913101,6.246952010376136,5.831906614785992,5.869001297016861,5.573281452658884,6.110765239948119
7.838651102464333,5.496757457846952,5.190920881971466,5.25810635538262,6.154604409857328,6.759273670557717,5.8101167315175095,5.599481193255512,5.517509727626459,5.102983138780804,4.838910505836576,4.895460440985732,4.971206225680934,5.161608300907911,6.336186770428016,7.854734111543451,9.288975356679636,9.622049286640726,8.974578469520104,8.999221789883268,9.367315175097277,9.775616083009078,10.646173800259403,11.588326848249027,12.771984435797666,13.484565499351492,13.432166018158236,12.852399481193256,11.534889753566796,9.796108949416341,8.158754863813229,7.498832684824903,7.191958495460441,5.957198443579766,5.173540856031128,5.13514915693904,5.353047989623865,5.5040207522697795,4.9032425421530474,4.93514915693904,5.3309987029831385,5.457846952010376,5.601037613488975,5.737743190661479,5.957976653696497,6.288197146562906,5.535408560311284,5.512581063553826,5.556679636835279,5.867963683527885
7.131258106355383,5.679896238651102,5.018677042801556,5.030350194552529,5.308949416342412,5.709987029831387,5.5457846952010375,4.986770428015564,5.133592736705577,4.814267185473411,4.745784695201038,4.801297016861219,5.079896238651102,5.664591439688715,6.452918287937743,8.348378728923475,10.231906614785991,10.85551232166018,10.509208819714656,10.63916990920882,11.009857328145266,11.385732814526587,12.048249027237354,12.728923476005189,13.773800259403373,14.690012970168613,13.414526588845655,11.790402075226977,10.600778210116731,9.39792477302205,8.15616083009079,7.720622568093385,7.508430609597925,6.342153047989624,5.418677042801556,5.056809338521401,5.016342412451362,4.913099870298313,4.8197146562905315,4.768871595330739,4.750972762645914,4.990402075226978,5.229571984435798,5.100389105058365,5.22023346303502,5.7234760051880675,5.3390402075226975,4.98651102464332,5.020752269779507,5.253437094682231
5.61556420233463,4.998184176394293,4.761348897535668,4.730220492866407,4.764721141374838,5.147859922178988,5.514915693904021,4.936964980544747,4.8166018158236055,4.6194552529182875,4.644876783398184,4.968093385214008,6.070557717250324,6.857587548638133,6.720881971465629,7.820492866407263,10.116990920881971,11.00207522697795,11.19325551232166,11.559273670557717,11.969649805447471,12.752788586251622,13.423346303501946,14.192736705577174,15.074708171206225,14.286640726329443,12.230350194552528,11.008560311284047,9.749675745784694,7.964721141374838,6.383138780804151,6.032166018158236,5.928664072632944,6.139818417639429,5.599740596627756,5.024643320363165,4.973800259403372,4.893385214007782,4.810376134889753,4.745006485084306,4.690272373540856,4.6370946822308685,4.652399481193256,4.607263294422827,4.571206225680934,4.652399481193256,4.597665369649805,4.44928664072633,4.39792477302205,4.329182879377432
5.665629053177691,4.828793774319066,4.640466926070038,4.498054474708171,4.725810635538262,5.141374837872892,5.126329442282749,4.816083009079118,4.590402075226978,4.5328145265888455,5.009857328145266,5.939040207522697,7.331258106355383,7.608300907911803,7.052140077821012,7.403631647211414,8.956160830090791,9.80207522697795,9.984954604409857,10.228274967574578,11.129961089494163,12.619714656290533,14.289234760051881,15.734889753566797,15.543190661478599,13.520103761348897,11.986770428015564,10.78728923476005,9.703501945525291,8.237354085603112,6.589623865110247,5.607782101167315,5.325551232166018,5.265110246433204,5.150453955901426,5.052918287937743,5.000259403372244,4.918547341115435,4.868741893644617,4.822568093385214,4.632944228274967,4.554345006485084,4.485343709468223,4.388067444876784,4.2905317769131,4.17302204928664,4.094682230869001,4.056290531776913,3.997146562905318,3.8671854734111544
5.036316472114137,5.033463035019455,4.766536964980545,4.486640726329442,4.505317769130999,4.650324254215305,4.604409857328145,4.41348897535668,4.36964980544747,4.450324254215305,4.982879377431907,5.840466926070039,7.160570687418937,8.628274967574578,7.64591439688716,7.3916990920881975,7.81219195849546,8.324254215304798,8.647730220492866,9.026718547341115,9.8337224383917,11.251880674448767,12.80804150453956,14.908171206225681,15.380804150453956,13.746044098573282,12.247211413748378,10.923994811932555,10.008560311284047,8.997665369649805,6.940596627756161,5.387289234760051,5.3678339818417635,5.311284046692607,5.194033722438392,5.157717250324254,5.106355382619974,5.181322957198444,5.5810635538261995,5.189105058365759,4.546562905317769,4.6609597924773025,4.486121919584955,4.374578469520103,4.2715953307392995,4.17302204928664,4.064332036316472,3.9450064850843063,3.8075226977950716,3.661997405966278
4.71621271076524,4.761089494163424,4.631647211413748,4.5408560311284045,4.414526588845655,4.411673151750973,4.3214007782101165,4.195330739299611,4.284824902723735,4.421530479896239,4.45810635538262,5.1434500648508426,6.455771725032426,8.865629053177692,9.913878080415046,8.851621271076525,8.19870298313878,8.287418936446173,8.347600518806743,8.553566796368353,8.929442282749676,10.319844357976653,11.705317769130998,13.46147859922179,14.315175097276265,13.68975356679637,12.10817120622568,10.44591439688716,9.098832684824902,7.580544747081713,6.033722438391699,5.482749675745785,5.328664072632944,5.2988326848249026,5.240466926070039,5.220752269779507,5.179507133592736,5.704280155642023,5.800778210116731,5.031387808041504,4.749416342412451,5.208819714656291,5.014526588845655,4.889753566796368,4.640726329442282,4.474708171206226,4.388845654993515,4.275486381322957,4.291050583657587,4.306614785992218
4.471076523994812,4.461738002594034,4.658625162127108,4.5665369649805445,4.499610894941634,4.370428015564202,4.081193255512321,4.260959792477302,4.865110246433203,5.282749675745785,5.361348897535668,6.165499351491569,7.216083009079118,8.730998702983138,11.257587548638131,11.33177691309987,10.478599221789883,10.329701686121918,9.321141374837874,8.87626459143969,8.989623865110246,9.507911802853437,10.74396887159533,12.306355382619973,13.310505836575876,13.219974059662777,11.679636835278858,10.077821011673151,8.532036316472114,6.654993514915694,5.587289234760052,5.531517509727626,5.407782101167315,5.269520103761349,5.270557717250324,5.309208819714656,5.390142671854734,5.6189364461738,5.298573281452659,5.066666666666666,4.967315175097276,5.46485084306096,5.744228274967575,5.384954604409857,5.345006485084306,5.380804150453955,5.491050583657588,5.3229571984435795,5.635278858625162,5.374578469520103
5.9657587548638125,5.433203631647211,5.311024643320363,4.984176394293126,4.414785992217899,4.188845654993515,3.920103761348898,4.327107652399481,4.871335927367055,5.185214007782101,6.363683527885863,7.459662775616083,8.083009079118028,8.543450064850843,9.965239948119326,12.057846952010376,12.557198443579768,11.78313878080415,10.238391699092087,9.62438391699092,9.311284046692608,9.485603112840467,10.556939040207522,11.917250324254214,13.241763942931259,13.582619974059664,11.900648508430608,10.523994811932555,9.24332036316472,7.273929961089494,5.736186770428016,5.424643320363164,5.354604409857328,5.823086900129701,6.15408560311284,5.9094682230869,6.161348897535667,5.908690012970168,5.374578469520103,5.2988326848249026,5.176134889753566,5.908949416342412,5.944747081712062,5.494163424124514,5.657068741893644,5.74863813229572,5.990402075226978,6.0521400778210115,6.2682230869001305,5.377950713359273
6.270298313878081,5.581322957198443,4.724513618677043,4.406485084306096,4.236575875486381,3.9271076523994815,3.915953307392996,4.529442282749676,4.705317769130999,5.102204928664072,6.281193255512322,6.389364461738003,6.279636835278859,6.139559014267185,7.159273670557718,9.980544747081712,11.695719844357976,12.49105058365759,12.006485084306096,11.017639429312581,10.534370946822309,10.421789883268483,11.210116731517509,12.304020752269778,13.732814526588847,14.570687418936446,12.977172503242542,11.754863813229571,10.45603112840467,10.049027237354085,9.393774319066148,7.777172503242542,6.532036316472115,7.1546044098573285,7.379247730220493,7.201297016861219,7.174059662775616,6.465888456549935,5.834760051880674,5.737743190661479,6.299610894941635,6.408560311284047,5.631647211413748,5.545006485084306,5.6435797665369645,5.867963683527885,5.993774319066148,6.099610894941634,6.168352788586251,5.303242542153048
5.549156939040207,4.411413748378729,4.255512321660182,4.04798962386511,4.007003891050584,3.7639429312581063,3.935667963683528,4.4012970168612195,4.90609597924773,5.54863813229572,6.450583657587549,5.9032425421530474,5.426977950713359,5.509208819714656,5.9753566796368345,7.798702983138781,9.644098573281452,10.734889753566796,11.622827496757457,12.138002594033722,11.76290531776913,11.818417639429311,12.326329442282749,13.183398184176395,13.928923476005188,14.304798962386512,14.21141374837873,13.934370946822309,12.117769130998703,11.612451361867704,11.790142671854733,10.58988326848249,9.206485084306095,8.38313878080415,8.385473411154345,9.022568093385214,8.563683527885862,6.81348897535668,6.27833981841764,7.425940337224384,8.643839169909208,6.875486381322958,5.582360570687419,5.646952010376134,5.810635538261997,5.720103761348898,6.048508430609598,6.314396887159534,5.970168612191958,5.538261997405966
5.94396887159533,4.402075226977951,3.8718547341115435,3.8492866407263295,3.827756160830091,3.7154345006485086,3.9979247730220493,4.071595330739299,4.604409857328145,5.223086900129702,5.782101167315175,5.795590142671855,5.27704280155642,5.233463035019455,5.643839169909208,6.832684824902724,8.743450064850842,9.080155642023346,9.221271076523994,10.765499351491568,9.870557717250325,9.56549935149157,10.612970168612192,10.974059662775616,10.778210116731517,11.186770428015564,12.030609597924773,13.088197146562907,13.155123216601817,12.43112840466926,12.074448767833982,11.77846952010376,10.964461738002594,10.271076523994811,9.882749675745785,10.479896238651103,9.913099870298314,8.10609597924773,7.359014267185474,8.746303501945524,8.889494163424125,7.315693904020753,6.085603112840467,6.724254215304799,6.930739299610895,6.709727626459144,7.131517509727627,6.860959792477303,5.9927367055771725,5.9385214007782094
5.268741893644617,4.107133592736705,3.9686121919584956,3.7618677042801556,3.706355382619974,3.7377431906614786,4.407003891050584,4.752269779507134,4.479636835278859,5.808041504539559,5.915693904020752,5.417898832684824,5.1662775616083,4.953566796368353,5.688715953307392,6.8337224383917,6.7810635538262005,6.882749675745785,7.626718547341116,8.846692607003892,8.705058365758754,7.594811932555124,7.223865110246433,7.516990920881971,7.942412451361868,8.889234760051881,9.467963683527886,10.417380025940338,11.652658884565499,11.064072632944228,10.626459143968871,10.24798962386511,10.446692607003891,11.43450064850843,11.603631647211413,11.224902723735408,9.356939040207523,7.597665369649806,7.289753566796368,7.78313878080415,7.656809338521401,7.473411154345007,7.410635538261998,8.436835278858625,8.527626459143969,7.932036316472114,7.4671854734111545,6.915175097276265,6.310246433203632,6.128923476005188
4.303501945525292,3.6915693904020754,3.6798962386511027,3.6996108949416344,3.703501945525292,3.763164721141375,4.476523994811933,5.515693904020752,5.805966277561608,5.773022049286641,5.959792477302204,5.505836575875486,4.831906614785992,4.912062256809338,5.514396887159533,5.852399481193255,5.122438391699092,5.110765239948119,5.497016861219196,6.465629053177691,7.410376134889754,6.806225680933853,5.719844357976654,5.521400778210117,5.740856031128405,7.095719844357977,8.281452658884564,9.495201037613489,9.904539559014268,9.811413748378728,9.011673151750973,8.686381322957198,9.294682230869,10.26355382619974,10.57639429312581,9.79740596627756,9.13047989623865,7.573281452658885,6.928923476005188,7.106614785992218,7.26485084306096,7.270557717250324,7.576913099870299,8.27237354085603,8.252658884565498,7.97094682230869,7.341893644617381,7.30739299610895,6.908171206225681,6.253696498054476
4.221530479896239,3.523216601815824,3.498573281452659,3.6645914396887163,3.6072632944228276,3.8064850843060962,4.534889753566796,5.532295719844358,6.082749675745784,5.153566796368352,5.032166018158236,4.96420233463035,4.607522697795071,5.086381322957198,6.0601815823605705,5.807263294422827,4.754345006485084,4.448249027237354,4.679377431906615,5.4575875486381324,6.060440985732814,5.3566796368352785,4.861219195849546,4.655252918287938,5.01011673151751,5.9284046692607,7.292866407263294,7.570946822308691,7.487678339818418,8.17509727626459,7.8293125810635535,7.493385214007782,8.149675745784695,9.312581063553827,9.066666666666666,7.832944228274967,7.740077821011673,7.269260700389105,6.843839169909209,7.017639429312581,7.169130998702983,7.301426718547341,7.563164721141375,7.8757457846952015,7.994033722438392,8.134111543450064,7.728664072632944,7.458365758754864,7.143450064850843,6.537224383916992
4.156160830090791,3.6077821011673152,3.438910505836576,3.569649805447471,3.681193255512322,4.30609597924773,4.676264591439689,5.591699092088197,5.735408560311284,5.677302204928663,5.08923476005188,4.645914396887159,4.440726329442283,4.840726329442282,5.790142671854734,5.4591439688715955,4.5634241245136185,4.308171206225681,4.628015564202334,4.92970168612192,5.8005188067444875,5.180025940337225,4.514915693904021,4.543190661478599,4.620492866407263,5.290012970168612,6.252918287937744,5.593514915693904,5.8726329442282745,6.560311284046693,6.70609597924773,6.16420233463035,6.900389105058366,8.441504539559014,7.780804150453956,6.9125810635538265,6.784176394293127,6.586251621271077,6.611673151750973,6.847730220492867,7.076783398184177,7.257328145265888,7.744228274967575,7.867185473411155,7.844876783398185,8.185732814526588,8.20752269779507,7.348897535667964,7.073929961089495,6.768871595330739
3.633722438391699,3.2674448767833986,3.313099870298314,3.3203631647211416,4.083527885862516,5.127626459143968,5.029831387808041,5.238132295719844,5.307392996108949,5.386251621271076,5.237354085603113,4.624124513618677,4.500129701686122,4.269260700389105,4.689234760051881,5.188845654993515,4.515693904020752,4.151232166018158,4.453955901426719,4.988067444876783,5.739040207522698,5.05473411154345,4.378210116731517,4.447730220492867,4.547600518806744,5.4848249027237355,5.952529182879377,5.019195849546044,4.975616083009079,5.344228274967574,5.538780804150454,5.4671854734111545,6.163683527885862,7.601037613488976,7.221530479896239,6.915953307392996,6.752529182879377,6.467963683527886,6.352529182879378,6.551750972762647,6.8773022049286645,7.3180285343709475,7.511284046692607,7.5424124513618676,7.6049286640726335,7.76083009079118,8.202594033722438,8.20207522697795,7.734630350194553,7.131517509727627
3.205447470817121,2.8988326848249026,2.791439688715953,3.3779507133592737,4.114137483787289,5.015045395590143,5.763164721141375,5.7123216601815825,5.285603112840467,4.734111543450065,4.726588845654994,4.817380025940337,4.39455252918288,4.221271076523995,4.617380025940337,5.3582360570687415,4.468482490272374,3.963424124513619,4.190142671854734,5.259403372243839,4.982879377431907,4.285343709468223,4.262775616083009,4.398443579766537,5.06692607003891,6.316990920881972,6.599740596627757,5.2619974059662775,4.771465629053178,4.646952010376134,4.883009079118028,5.236057068741894,6.0249027237354085,7.568871595330739,7.373022049286641,7.289494163424124,7.182101167315175,6.49727626459144,6.182619974059662,6.400518806744488,7.090791180285344,7.260959792477302,7.157198443579767,7.271335927367056,7.44928664072633,8.143190661478599,9.179247730220492,9.529182879377432,8.97431906614786,8.483268482490272
2.513099870298314,2.42905317769131,2.5247730220492866,3.2656290531776917,4.0072632944228275,4.947341115434501,5.273929961089494,5.5922178988326845,5.024124513618677,4.483527885862516,4.52632944228275,4.629571984435797,4.035538261997406,4.072114137483787,4.813488975356679,4.978988326848249,4.3094682230869,3.8881971465629053,4.370428015564202,4.827237354085603,4.395330739299611,4.117509727626459,4.16083009079118,4.7154345006485086,6.178469520103761,7.306095979247731,6.763942931258106,5.366018158236057,4.621530479896238,4.556160830090791,4.75201037613489,5.011154345006485,6.189364461738002,8.305058365758754,8.717509727626458,8.269779507133592,7.640466926070039,6.249546044098574,6.121400778210116,6.369909208819715,6.733852140077821,6.739299610894942,7.094163424124514,7.267963683527886,7.745525291828794,9.082230869001297,8.837354085603113,8.24124513618677,8.367833981841764,9.226718547341115
2.275745784695201,1.9821011673151752,2.232684824902724,2.820492866407263,3.616083009079118,4.185992217898833,4.058365758754864,5.119584954604409,4.975356679636835,4.037354085603113,4.308430609597925,4.255771725032425,3.892088197146563,3.9086900129701685,4.36757457846952,4.09935149156939,3.884046692607004,4.0617380025940335,4.375616083009079,4.1473411154345,3.977431906614786,4.045136186770428,4.197665369649806,5.0939040207522694,6.846433203631648,6.900907911802854,5.708690012970168,4.657068741893645,4.4319066147859925,4.567055771725032,4.744487678339818,5.363164721141374,7.4783398184176395,8.305577172503241,8.294163424124513,7.376913099870299,6.590920881971466,5.908949416342412,5.978988326848249,6.081971465629053,6.277042801556421,6.55330739299611,7.106095979247731,7.708430609597925,8.5662775616083,8.569909208819714,7.6705577172503245,8.056549935149157,8.353047989623864,9.02775616083009
2.4121919584954603,1.8368352788586253,1.756420233463035,2.234241245136187,2.91284046692607,3.4015564202334634,3.6581063553826203,4.575616083009079,4.662775616083009,3.9810635538262,3.8272373540856033,3.915953307392996,3.7265888456549936,3.8153047989623867,3.795590142671855,3.729182879377432,3.7865110246433207,3.8897535667963683,3.950194552529183,3.904539559014267,3.9273670557717253,4.0280155642023345,4.64461738002594,5.4368352788586245,5.8645914396887155,5.7813229571984435,5.090272373540856,4.401556420233463,4.396887159533074,4.907133592736705,5.606744487678339,7.053696498054475,8.166796368352788,7.561608300907912,7.153307392996109,6.3885862516212715,5.852399481193255,5.6884565499351485,6.004669260700389,6.409079118028535,6.517769130998704,6.73852140077821,7.083268482490273,7.774578469520104,8.355901426718546,7.802334630350194,7.663294422827497,7.839429312581064,8.14396887159533,9.191439688715953
3.66147859922179,2.5312581063553825,1.6936446173800261,1.6915693904020752,2.2988326848249026,2.972243839169909,3.6814526588845657,4.1468223086900124,3.998702983138781,3.577950713359274,3.2199740596627757,3.257328145265889,3.3125810635538264,3.202075226977951,3.1966277561608303,3.4448767833981844,3.6547341115434504,3.7299610894941635,3.797405966277562,3.805188067444877,3.9188067444876786,4.027237354085603,4.368612191958495,4.628534370946822,4.815823605706874,4.990661478599222,4.66822308690013,4.265888456549935,4.438651102464332,5.048767833981842,6.359273670557718,7.8661478599221795,7.57898832684825,7.175616083009079,6.88171206225681,6.1115434500648504,5.619714656290531,5.493644617380026,5.892088197146562,6.609338521400779,7.121141374837873,7.164721141374838,7.518806744487678,8.06822308690013,7.846433203631648,7.367315175097277,7.3709468223086905,7.1561608300907915,7.61011673151751,9.315175097276265
4.57431906614786,3.32632944228275,1.9060959792477303,1.4425421530479896,1.7577172503242542,2.430609597924773,3.174837872892348,3.2363164721141375,2.85810635538262,2.6249027237354086,2.458365758754864,2.612710765239948,2.722178988326848,2.8217898832684822,3.0249027237354085,3.2983138780804153,3.5610894941634244,3.6166018158236057,3.625940337224384,3.786251621271077,3.901426718547341,3.8845654993514915,3.855252918287938,3.9491569390402077,4.09260700389105,4.144228274967574,4.097276264591439,4.189623865110247,4.724773022049287,5.3904020752269775,6.371725032425422,7.8596627756160835,7.419714656290532,7.199740596627756,7.177431906614786,6.4767833981841765,5.579507133592736,5.392736705577172,5.436057068741893,6.063813229571984,6.604409857328146,7.3548638132295725,7.465629053177691,7.443320363164721,7.383398184176395,7.012970168612192,6.735927367055772,7.020233463035019,8.06692607003891,8.834760051880675
4.167315175097276,3.523476005188068,2.4578469520103763,1.7613488975356681,1.3994811932555122,1.9522697795071335,2.3312581063553828,1.9551232166018158,1.8560311284046693,2.0412451361867703,2.1735408560311282,2.397924773022049,2.7639429312581063,3.070557717250324,3.224643320363165,3.327367055771725,3.383657587548638,3.805447470817121,3.8345006485084308,3.8269779507133594,3.862775616083009,3.8817120622568093,3.8601815823605707,3.8303501945525293,3.8863813229571984,3.9732814526588847,4.009857328145266,4.049546044098573,4.338261997405966,4.723216601815824,5.2811932555123215,7.428793774319066,8.701167315175097,7.957717250324254,6.823086900129702,5.9738002594033714,5.599221789883268,5.391699092088197,5.198184176394293,5.419455252918287,6.1821011673151745,6.648767833981842,6.506614785992218,7.0715953307393,7.323476005188068,6.4767833981841765,6.316990920881972,7.198702983138781,7.83709468223087,7.989105058365759
4.321919584954604,3.90609597924773,3.219714656290532,2.27704280155642,1.4028534370946821,1.6894941634241245,1.6332036316472116,1.7214007782101168,2.3553826199740597,2.6438391699092088,2.7032425421530477,2.65473411154345,2.7299610894941635,3.1102464332036313,3.2474708171206226,3.3413748378728925,3.4736705577172504,4.076783398184176,4.628534370946822,4.642023346303501,4.684046692607004,4.053955901426718,4.198702983138781,4.345784695201037,4.246173800259403,4.196108949416343,4.370168612191958,4.427496757457847,4.197146562905318,4.283009079118028,4.749416342412451,5.966796368352788,7.684824902723736,7.448508430609598,6.753047989623865,6.081193255512321,6.042023346303502,5.842801556420233,5.219455252918288,5.046433203631647,5.718547341115435,6.203372243839169,6.410376134889754,7.23916990920882,7.30272373540856,6.051621271076524,6.1514915693904015,6.8531776913099876,6.826459143968872,7.666407263294423
4.054993514915694,3.5691309987029833,3.1496757457846956,2.081971465629053,1.4798962386511023,1.5299610894941633,1.5709468223086902,2.1605706874189363,2.710765239948119,2.9442282749675743,3.1198443579766533,3.062256809338521,3.2391699092088198,3.6581063553826203,3.754604409857328,3.504539559014267,3.703501945525292,3.881971465629053,4.3566796368352785,4.975616083009079,5.80881971465629,5.960570687418936,6.088456549935149,5.6033722438391695,4.814785992217899,4.273411154345006,4.565499351491569,5.354604409857328,4.895460440985732,4.435538261997406,4.572762645914397,5.501945525291829,7.151750972762646,7.473151750972763,7.06614785992218,6.638391699092089,6.71621271076524,6.978988326848249,5.687678339818417,4.912321660181582,5.167833981841763,5.878080415045395,6.338261997405967,6.596627756160831,6.378728923476006,5.636575875486381,5.707911802853436,6.120363164721141,6.448508430609598,7.259922178988327
3.580544747081712,3.041763942931258,2.4866407263294423,1.612970168612192,1.3180285343709468,1.4856031128404668,2.1185473411154345,2.7473411154345007,2.963683527885862,3.031906614785992,3.2155642023346305,3.216601815823606,3.8492866407263295,5.218417639429313,4.587029831387808,3.6487678339818417,3.766018158236057,4.096498054474708,4.3647211413748375,4.88249027237354,6.1242542153047985,7.366536964980545,6.7732814526588845,5.649805447470817,4.985214007782101,4.502204928664073,4.486121919584955,5.436575875486381,5.399481193255512,4.830350194552529,5.110246433203631,6.848249027237355,8.653696498054474,8.319325551232165,7.575356679636836,7.132555123216602,7.0264591439688715,7.605447470817121,6.626459143968872,5.152269779507133,4.803631647211414,4.926588845654994,5.25810635538262,5.706614785992217,5.527626459143969,5.319325551232166,5.927626459143968,6.144747081712062,6.873670557717251,7.8612191958495465
3.3185473411154347,2.6505836575875485,2.046433203631647,1.1683527885862517,1.3219195849546044,2.0153047989623865,2.5758754863813227,3.2788586251621274,3.815045395590143,3.8881971465629053,3.403891050583658,3.2511024643320363,3.801815823605707,4.946044098573282,4.489753566796368,3.7932555123216605,3.810376134889754,4.331517509727626,4.847730220492866,5.252918287937743,6.3431906614786,6.847211413748379,5.514915693904021,4.947081712062257,4.838132295719844,4.559273670557717,4.631906614785992,5.348378728923476,6.327367055771726,6.503242542153048,7.524254215304799,9.350972762645915,9.97094682230869,9.893385214007782,8.469001297016861,6.809597924773023,6.258106355382621,6.496238651102464,6.30739299610895,5.270817120622568,4.96420233463035,4.723216601815824,4.563683527885862,4.728664072632944,4.997146562905318,5.536964980544747,6.670298313878081,7.3260700389105065,7.91958495460441,8.319066147859921
2.604928664072633,2.106874189364462,1.5268482490272373,0.9551232166018159,1.4088197146562904,2.208560311284047,2.732036316472114,3.02905317769131,3.7398184176394293,4.921660181582361,5.023346303501945,4.204928664072633,4.657587548638133,5.34189364461738,4.533592736705577,3.9115434500648507,3.888975356679637,4.458365758754864,5.13722438391699,5.672114137483787,6.845395590142672,7.190661478599222,5.896498054474708,5.0521400778210115,4.957198443579767,5.231387808041505,5.693125810635538,6.478858625162127,8.136446173800259,9.063813229571984,9.41219195849546,9.085343709468223,8.499610894941634,10.325551232166017,9.213488975356679,6.95875486381323,6.311802853437095,5.730220492866407,5.469520103761349,5.377691309987029,5.575356679636835,5.336964980544747,4.919844357976654,4.537483787289235,4.41011673151751,5.092866407263294,6.34993514915694,6.534889753566797,6.655512321660182,7.118806744487679
1.713099870298314,1.0041504539559014,0.7654993514915693,1.0295719844357976,1.5533073929961088,2.5584954604409855,3.3058365758754866,3.8090791180285346,4.453696498054475,5.570168612191958,6.974059662775616,6.554085603112841,7.147600518806745,6.5040207522697795,4.5776913099870296,3.980544747081712,4.19662775616083,5.066666666666666,5.454993514915694,6.403112840466926,7.0791180285343716,6.519066147859923,6.278080415045396,6.07029831387808,6.220233463035019,6.69727626459144,6.937224383916991,7.546822308690013,8.22438391699092,8.459143968871595,7.201556420233463,6.882490272373541,7.214526588845655,9.1852140077821,9.519325551232166,7.954604409857328,7.2,6.402075226977951,5.905058365758754,5.85136186770428,6.549675745784696,6.235278858625161,5.788586251621271,5.203891050583658,4.50609597924773,4.28715953307393,5.030090791180285,5.3582360570687415,5.8293125810635535,5.991699092088197
0.8627756160830091,0.7042801556420233,1.2552529182879377,1.4811932555123215,1.866147859922179,2.9284046692607,3.5750972762645916,4.212191958495461,4.637613488975356,4.999740596627756,6.123735408560311,8.17302204928664,9.105836575875486,6.979766536964981,5.284824902723735,4.422568093385214,4.628793774319066,5.919844357976653,6.947341115434501,6.923476005188068,5.892088197146562,5.506874189364462,5.545525291828794,5.844098573281452,5.788067444876783,5.974319066147859,6.003631647211414,6.234760051880674,6.611154345006486,6.773022049286641,6.13514915693904,5.985473411154345,6.370428015564203,7.46147859922179,8.876783398184177,9.043839169909209,8.546822308690013,8.063813229571984,7.4928664072632944,6.82697795071336,6.9413748378728926,6.690272373540856,6.014526588845655,5.371465629053177,5.289753566796368,4.548119325551232,4.117509727626459,4.3022049286640724,4.833203631647211,4.8902723735408555
0.40363164721141376,0.8295719844357977,1.4108949416342411,1.6715953307392997,2.1247730220492866,2.540077821011673,3.0264591439688715,3.6090791180285344,3.92295719844358,4.461219195849546,5.8197146562905315,7.552269779507133,7.583138780804151,6.954863813229572,7.012451361867704,6.342153047989624,6.28508430609598,7.535667963683528,7.75201037613489,6.672114137483788,5.743190661478599,5.266147859922179,5.1771725032425415,5.256031128404669,5.535408560311284,5.61556420233463,5.384176394293125,5.677302204928663,5.995849546044099,5.915693904020752,5.830090791180285,5.646173800259403,5.878080415045395,6.650324254215305,8.056290531776913,8.54059662775616,7.865888456549936,7.813748378728923,7.767833981841764,7.083009079118029,6.564202334630351,6.14059662775616,5.8614785992217895,6.340596627756161,6.017380025940337,5.019195849546044,4.6658884565499354,4.239688715953307,3.9509727626459146,3.930739299610895
0.4095979247730221,1.0215304798962386,1.5413748378728922,2.111543450064851,2.1333333333333333,2.503242542153048,2.59662775616083,3.208300907911803,3.7945525291828797,4.792996108949416,6.108949416342412,5.699870298313877,5.629571984435797,5.52632944228275,6.142153047989623,7.228015564202335,7.771465629053178,6.817639429312582,6.174578469520103,6.0378728923476,6.262256809338522,6.04798962386511,5.504280155642023,5.204150453955902,5.20674448767834,5.4352788586251615,5.4448767833981835,5.4031128404669255,5.772762645914397,5.448249027237354,5.48378728923476,5.560570687418936,5.861738002594033,6.516212710765241,7.450583657587549,7.815045395590142,7.536186770428015,7.429831387808042,7.3740596627756165,7.485862516212711,7.090272373540857,7.149416342412452,7.004150453955901,6.925291828793775,5.777950713359274,5.584695201037613,5.203631647211414,4.812710765239948,4.7027237354085605,4.033722438391699
0.9766536964980544,1.7182879377431908,2.0648508430609596,2.5003891050583658,2.172503242542153,2.466147859922179,2.8848249027237354,3.1867704280155644,3.9426718547341117,4.859143968871595,5.639948119325551,5.136186770428015,5.26485084306096,4.935927367055772,5.361348897535668,6.190661478599221,6.82697795071336,6.226459143968871,5.871335927367055,5.719325551232166,5.8378728923476,6.390661478599222,5.995330739299611,5.316990920881971,5.168352788586251,5.24254215304799,5.21686121919585,4.910765239948119,5.074708171206225,5.29260700389105,5.490012970168612,5.622827496757457,6.062516212710765,6.4783398184176395,6.626459143968872,7.236057068741894,7.432944228274968,7.217639429312581,7.201556420233463,7.338002594033723,7.714656290531777,7.605188067444877,6.6946822308690015,6.245395590142673,6.302204928664073,6.467444876783398,5.942671854734111,6.253437094682232,6.158754863813229,4.792217898832685
1.6085603112840468,2.5792477302204926,3.0505836575875485,3.3859922178988326,2.8409857328145263,2.1229571984435798,2.981582360570687,3.4671854734111545,3.9084306095979247,4.507392996108949,5.044876783398184,4.95875486381323,4.836835278858625,4.754345006485084,5.357717250324254,5.665629053177691,6.211673151750972,6.452399481193256,5.869001297016861,5.657068741893644,5.552529182879377,5.708430609597924,6.006485084306096,6.031906614785992,5.947081712062256,5.067444876783398,4.615304798962386,4.904539559014267,5.1929961089494165,5.331517509727626,5.717250324254215,6.021271076523995,6.119066147859922,6.387289234760052,6.715953307392996,7.577431906614787,7.854215304798963,7.4415045395590145,7.052399481193256,7.072892347600519,7.466926070038911,7.60466926070039,7.762645914396887,7.51621271076524,7.271076523994812,7.6145265888456555,7.86485084306096,7.668482490272374,6.53644617380026,5.100129701686122
1.3738002594033722,2.408041504539559,3.110505836575875,3.8798962386511024,3.6910505836575878,2.3974059662775615,2.754863813229572,3.5094682230869,3.8638132295719845,4.344747081712062,4.716472114137484,4.700129701686122,4.681971465629053,4.879636835278858,5.007522697795071,5.466666666666667,6.411154345006485,6.685603112840467,5.884824902723735,5.6378728923476,5.40881971465629,5.208041504539559,5.758236057068742,6.008560311284047,5.91828793774319,4.715693904020752,4.819974059662775,5.337743190661478,5.304280155642023,5.42775616083009,5.649546044098573,5.932295719844357,6.118028534370946,6.3195849546044105,7.276264591439689,8.206485084306095,8.251102464332035,7.634500648508431,6.9800259403372245,6.884824902723736,7.090012970168613,7.985214007782101,8.213229571984435,7.628534370946823,8.140856031128404,8.6757457846952,7.924773022049287,6.20544747081712,5.084565499351491,4.1787289234760046
0.9559014267185474,1.6435797665369651,2.470817120622568,3.2456549935149157,3.953307392996109,3.514137483787289,2.4944228274967575,2.930220492866407,3.65136186770428,4.150194552529182,4.389105058365759,4.3517509727626456,4.414526588845655,4.569909208819714,4.723216601815824,5.300129701686122,6.21763942931258,7.209597924773022,6.519066147859923,5.8856031128404664,5.469001297016861,5.076783398184176,5.048249027237354,5.3919584954604405,5.187548638132296,4.586770428015564,5.081971465629053,5.301167315175097,5.77094682230869,5.846173800259403,5.830350194552529,6.091569390402075,6.060440985732814,6.711802853437095,8.28249027237354,8.002334630350195,7.523476005188067,7.503501945525292,7.278858625162127,6.908949416342413,6.642282749675746,6.930739299610895,6.969390402075227,7.390402075226978,7.8526588845655,8.10479896238651,7.706874189364462,5.832166018158236,4.504280155642023,3.549156939040208
2.062775616083009,1.2051880674448767,1.7833981841763944,2.756160830090791,3.5203631647211417,4.038910505836576,3.669520103761349,2.764461738002594,3.1499351491569394,3.643320363164721,3.819455252918288,3.861219195849546,3.9476005188067447,4.3774319066147855,4.761867704280156,5.371984435797665,5.859143968871595,6.759533073929961,6.342671854734112,6.016083009079118,5.714915693904021,5.127626459143968,4.991439688715953,5.046433203631647,4.873151750972762,4.5584954604409855,5.068482490272373,5.368612191958495,5.872892347600518,6.513099870298315,6.145784695201037,6.176134889753566,7.192736705577173,8.682230869001296,8.440985732814527,8.166018158236056,7.797405966277561,7.513878080415045,7.392477302204929,7.096498054474709,6.657328145265889,6.464072632944228,6.635538261997406,7.191958495460441,7.2,8.181063553826199,8.778210116731518,7.007003891050584,4.657328145265889,3.3302204928664074
3.0861219195849543,2.0308690012970168,1.4316472114137484,2.009597924773022,3.007782101167315,3.5722438391699094,4.440207522697795,3.853177691309987,3.2754863813229576,3.305058365758755,3.4495460440985735,3.959792477302205,4.445136186770428,4.389883268482491,5.009857328145266,5.628015564202334,5.9896238651102465,6.440726329442283,6.206744487678339,5.626199740596627,5.382619974059662,5.260959792477302,4.960570687418937,4.71958495460441,4.691309987029832,4.494163424124514,4.906874189364461,5.402594033722438,5.758236057068742,5.961608300907911,5.628274967574578,6.01556420233463,8.111284046692607,9.037613488975357,8.488715953307393,8.032944228274967,7.798702983138781,7.976394293125811,7.670038910505837,7.6754863813229575,6.955642023346304,6.33307392996109,6.398702983138781,6.7795071335927375,7.6513618677042805,8.927885862516213,8.957976653696498,7.570946822308691,5.1802853437094685,3.395590142671855
3.641763942931258,3.163424124513619,2.5680933852140075,2.1730220492866406,2.8036316472114136,3.6300907911802853,5.235019455252918,5.305836575875486,4.562386511024643,4.71621271076524,4.405188067444877,5.746303501945525,5.284824902723735,4.490012970168612,5.049546044098573,6.03916990920882,7.007782101167315,7.499610894941634,6.861738002594034,6.323994811932556,5.811413748378729,5.363164721141374,5.179766536964981,5.601297016861219,5.380544747081712,4.520881971465629,4.6098573281452655,5.266147859922179,5.543709468223087,5.26485084306096,5.360051880674448,6.609857328145266,7.954085603112841,7.452918287937743,7.519844357976654,7.4012970168612195,7.0088197146562905,7.691309987029832,8.603112840466926,9.033981841763943,7.3211413748378735,6.1418936446173795,6.24383916990921,7.2090791180285345,7.8357976653696495,7.997405966277562,7.524513618677043,7.157457846952011,5.992996108949416,3.708430609597925
3.7963683527885865,4.1162127107652395,3.2057068741893646,2.9896238651102465,3.281193255512322,4.112581063553826,6.150972762645914,6.73514915693904,5.998443579766537,6.522178988326849,6.262516212710766,6.474189364461738,6.272114137483788,5.630609597924773,6.2651102464332045,7.546044098573281,7.558754863813229,7.704798962386511,6.641504539559015,6.226459143968871,6.672632944228275,6.164980544747081,5.870038910505836,6.759273670557717,6.118028534370946,4.51958495460441,4.429571984435798,4.93307392996109,5.243579766536965,5.384435797665369,5.865629053177691,6.817639429312582,6.708690012970169,6.549416342412452,6.714656290531777,6.963424124513619,6.72970168612192,6.61348897535668,8.357457846952009,8.995849546044099,7.216083009079118,6.131258106355382,5.944747081712062,5.889753566796368,5.900648508430609,6.079896238651102,5.97769130998703,5.8277561608300905,5.46822308690013,4.012710765239948
3.8881971465629053,4.977431906614786,4.33177691309987,3.8879377431906614,4.154345006485084,5.7924773022049285,6.44254215304799,6.1473411154345,5.736964980544747,5.720103761348898,5.815045395590142,5.77431906614786,7.312581063553827,8.10402075226978,7.442282749675746,7.045395590142673,6.404150453955902,6.319844357976654,6.177691309987029,5.802334630350194,6.033981841763943,5.842023346303502,5.769130998702983,6.927626459143969,6.398962386511025,4.7188067444876785,4.1473411154345,4.653177691309987,5.292347600518807,5.594033722438391,5.854215304798962,5.998702983138781,5.751232166018158,5.913099870298313,6.288975356679638,6.323216601815824,6.359792477302205,6.759792477302205,8.297016861219195,7.5680933852140075,6.403631647211414,6.190402075226977,5.958754863813229,5.470557717250324,5.176653696498054,5.012970168612192,4.959273670557717,4.1338521400778205,3.3574578469520104,3.5942931258106356
4.127885862516212,5.684306095979247,6.024383916990921,6.10272373540856,6.099610894941634,6.699351491569391,5.956679636835278,5.655512321660181,5.688197146562905,5.460440985732815,5.5377431906614785,6.4671854734111545,7.78651102464332,7.6850843060959795,6.689753566796369,5.736705577172503,5.523735408560311,5.861997405966277,6.014785992217899,5.5284046692607,5.148638132295719,5.293385214007782,5.232166018158236,6.57224383916991,6.669260700389105,4.988586251621271,4.04124513618677,4.383916990920882,5.123216601815823,5.581582360570687,5.5649805447470815,5.536964980544747,5.532295719844358,5.616083009079118,5.77976653696498,6.001815823605707,6.2858625162127115,7.342153047989624,7.533073929961089,6.659143968871596,6.409597924773022,6.3195849546044105,6.577950713359274,6.947081712062257,6.443320363164721,6.0985732814526585,4.744487678339818,3.22568093385214,2.825162127107652,2.801037613488975
4.112321660181582,5.311024643320363,7.939040207522698,7.934889753566797,6.295979247730221,5.810894941634241,5.262516212710765,5.240985732814527,5.378988326848249,5.219455252918288,6.06147859922179,7.617898832684825,7.957976653696498,6.962905317769131,6.229571984435797,5.563942931258106,4.991699092088197,5.460440985732815,6.516472114137485,5.635278858625162,4.91958495460441,4.946822308690013,5.172762645914396,6.210635538261997,6.41011673151751,5.037354085603113,4.190142671854734,4.153566796368352,5.050843060959792,5.39533073929961,5.2236057068741895,5.242282749675746,5.2282749675745785,5.501167315175097,5.614785992217898,5.844876783398184,6.725551232166018,7.280674448767834,6.792217898832686,6.62023346303502,6.6095979247730225,6.963164721141375,7.935667963683528,8.88508430609598,8.50272373540856,7.304020752269779,5.405966277561608,3.5997405966277563,2.9844357976653693,2.775875486381323
6.485343709468223,6.779766536964981,8.38651102464332,8.579247730220493,8.186770428015564,6.766018158236057,5.339818417639429,5.039688715953307,4.929182879377432,5.166796368352788,6.413748378728924,6.836575875486382,7.1810635538262,7.167833981841764,5.562645914396887,4.959273670557717,4.70402075226978,5.587808041504539,6.544747081712063,5.235538261997406,4.808041504539559,4.736705577172503,5.103761348897535,5.573540856031128,5.5937743190661475,5.140077821011673,4.126588845654993,4.1242542153047985,4.820752269779507,5.046692607003891,5.446952010376135,5.9810635538262,6.003891050583658,6.135408560311284,6.793514915693905,7.163942931258107,7.25810635538262,7.090012970168613,7.039429312581064,7.62023346303502,8.509208819714656,9.329442282749676,10.233722438391698,9.551491569390402,7.989105058365759,7.705317769130999,6.520622568093386,4.3597924773022045,3.5654993514915696,3.408560311284047