1.6451361867704282,2.0964980544747083,1.9987029831387808,1.7670557717250326,1.8980544747081713,2.4700389105058367,3.036835278858625,3.010894941634241,3.385214007782101,3.819455252918288,3.737224383916991,3.9058365758754863,4.492088197146563,5.0778210116731515,4.73177691309987,4.168093385214007,3.668482490272374,3.5901426718547342,3.9193255512321663,4.313099870298314,4.378988326848249,4.555642023346303,4.687678339818418,5.06485084306096,5.589364461738002,6.389105058365759,6.924254215304799,7.0824902723735415,5.953566796368352,5.269779507133593,5.1226977950713355,5.635019455252918,6.803112840466927,7.356939040207523,6.538261997405967,6.012451361867704,4.804409857328145,3.517769130998703,3.222568093385214,3.0202334630350194,2.640466926070039,2.6166018158236057,2.5149156939040207,2.2889753566796367,2.4957198443579767,2.359533073929961,2.363164721141375,2.573800259403372,2.530479896238651,2.8394293125810632
2.235278858625162,2.790402075226978,3.170168612191959,3.0197146562905317,2.925291828793774,2.0588845654993513,2.983398184176394,3.8368352788586253,3.7219195849546045,3.2547341115434505,2.823605706874189,3.354863813229572,4.5151750972762645,4.781841763942931,3.5771725032425423,3.2057068741893646,3.753307392996109,4.502204928664073,4.222827496757458,4.8775616083009075,5.152529182879377,5.520622568093385,5.710246433203631,6.391958495460441,6.778469520103762,6.189105058365758,5.536705577172503,6.0168612191958495,5.371465629053177,4.386251621271077,5.052918287937743,5.833722438391699,6.841245136186771,6.3291828793774325,5.171725032425421,4.706614785992218,4.115953307392996,3.317769130998703,3.1546044098573285,2.923994811932555,2.501426718547341,2.433722438391699,2.3465629053177692,2.3846952010376135,2.5312581063553825,2.584954604409857,2.643579766536965,2.8970168612191958,3.165239948119326,3.297016861219196
2.2249027237354086,2.8,4.091569390402075,4.485862516212711,4.09597924773022,2.8002594033722437,2.306355382619974,2.9408560311284044,2.4217898832684823,2.431906614785992,2.7128404669260697,2.6477302204928663,3.0295719844357976,3.397405966277562,3.3156939040207525,3.9748378728923477,3.6726329442282752,4.372503242542153,4.826459143968871,5.88586251621271,6.423346303501946,6.463813229571985,6.054993514915694,5.7571984435797665,5.5922178988326845,4.915175097276265,4.6274967574578465,5.363164721141374,4.6098573281452655,4.049805447470817,4.669260700389105,5.338780804150454,6.141634241245136,6.008300907911803,4.41348897535668,3.628793774319066,3.2775616083009083,3.284565499351492,2.888715953307393,2.5102464332036316,2.5268482490272373,2.7896238651102463,2.6970168612191956,2.6793774319066146,2.664332036316472,2.869520103761349,3.447211413748379,4.198443579766537,4.165499351491569,4.199740596627756
2.2425421530479897,3.419714656290532,3.800518806744488,4.101167315175097,4.513359273670558,3.937224383916991,2.8246433203631645,2.50609597924773,2.688197146562905,3.120622568093385,3.7584954604409857,3.985214007782101,3.378988326848249,2.761089494163424,3.4365758754863815,4.260181582360571,4.849805447470817,4.676523994811933,5.839169909208819,6.485343709468223,7.156420233463035,6.1948119325551225,5.292088197146563,4.626718547341115,4.179507133592736,3.9540856031128406,3.915693904020752,4.2892347600518805,3.9133592736705576,3.6900129701686124,4.053177691309987,4.612710765239948,5.616083009079118,5.271335927367056,3.8863813229571984,3.5932555123216603,3.1771725032425424,2.8259403372243836,2.718547341115434,2.959014267185473,2.707911802853437,3.596887159533074,3.598184176394293,3.181322957198444,2.8249027237354083,3.0892347600518804,3.9512321660181584,4.760311284046693,5.218158236057069,5.45810635538262
2.3618677042801557,2.925291828793774,2.9003891050583657,3.8492866407263295,5.015823605706874,5.020233463035019,4.3374837872892344,4.3486381322957195,4.4783398184176395,4.496498054474708,4.869260700389105,5.065110246433203,3.824643320363165,3.5138780804150453,4.3421530479896235,5.107133592736705,5.993774319066148,6.162645914396887,6.296238651102465,6.945525291828794,6.397665369649806,6.312062256809339,5.965499351491569,5.1291828793774314,4.302464332036316,3.971465629053178,3.7312581063553827,3.676523994811933,3.706614785992218,3.821271076523995,4.18780804150454,4.976653696498055,5.171465629053177,4.33177691309987,3.6511024643320362,3.2282749675745785,2.961089494163424,2.8440985732814523,3.400259403372244,3.9136186770428014,2.8793774319066148,3.0412451361867703,3.6612191958495464,3.7680933852140077,3.7392996108949417,3.2171206225680935,3.1421530479896242,3.6518806744487677,4.660700389105059,5.45810635538262
2.3361867704280157,2.3714656290531777,2.947859922178988,4.101686121919585,4.082749675745784,4.3284046692607,4.4848249027237355,4.446692607003891,3.7745784695201037,3.9667963683527887,4.727885862516213,5.147600518806744,4.287937743190661,4.226199740596628,5.555642023346303,6.028793774319066,6.243579766536966,5.483268482490272,5.247211413748379,5.643060959792477,5.077561608300908,5.230350194552529,4.80881971465629,4.112321660181582,3.8609597924773023,3.789364461738003,3.762905317769131,3.754863813229572,3.7232166018158237,3.775875486381323,4.498054474708171,4.7940337224383915,4.593514915693904,4.288197146562905,3.541115434500649,3.1512321660181586,3.046173800259403,3.7408560311284047,4.788067444876783,3.90272373540856,3.2472114137483787,2.8500648508430606,3.2964980544747085,4.7364461738002595,4.050843060959792,3.434241245136187,3.6723735408560314,3.5610894941634244,3.7719844357976653,4.3245136186770425
2.6106355382619975,2.1346303501945525,3.052658884565499,3.5413748378728926,3.0409857328145264,3.7686121919584954,3.6881971465629055,3.808560311284047,3.13307392996109,3.6264591439688716,4.477561608300908,5.674967574578469,5.263035019455253,5.225421530479896,5.218417639429313,4.700129701686122,5.146303501945525,4.42360570687419,4.305836575875486,4.534370946822309,4.181322957198443,4.03242542153048,4.21686121919585,4.012970168612192,3.7263294422827498,3.8409857328145267,3.849805447470817,3.83916990920882,3.7779507133592736,3.880933852140078,4.519066147859922,4.132036316472114,3.8332036316472116,3.709727626459144,3.3914396887159537,3.2679636835278862,3.787548638132296,4.632425421530479,4.961348897535668,3.983916990920882,4.046173800259403,3.947081712062257,3.38780804150454,4.670298313878081,4.7924773022049285,4.40337224383917,4.682230869001297,4.23916990920882,4.482490272373541,5.158754863813229
2.0075226977950713,2.0518806744487676,2.617639429312581,2.6264591439688716,2.396887159533074,2.5600518806744486,2.6430609597924772,2.8391699092088194,3.036835278858625,4.183657587548638,5.059662775616083,4.92295719844358,4.3501945525291825,5.114137483787289,4.763942931258106,4.335667963683528,4.375356679636835,4.245654993514916,4.140856031128404,4.014007782101167,4.023865110246433,4.370428015564202,5.248767833981842,5.221789883268483,4.51621271076524,4.024124513618677,3.9603112840466927,3.9335927367055774,3.8778210116731517,3.8446173800259404,3.879118028534371,3.5784695201037615,3.4347600518806747,3.3201037613488977,3.324513618677043,3.339040207522698,3.527626459143969,3.903242542153048,4.714656290531777,4.94526588845655,5.462775616083009,5.616083009079118,4.0425421530479895,4.087678339818417,5.277302204928664,5.921400778210116,5.853177691309987,5.258365758754864,5.229831387808042,4.7364461738002595
1.843579766536965,2.5507133592736704,2.334111543450065,1.869520103761349,2.2749675745784694,2.735667963683528,3.279896238651103,3.287678339818418,3.4300907911802856,3.52970168612192,4.811154345006485,4.821011673151751,3.968093385214008,4.370168612191958,4.557976653696498,4.518806744487678,4.325291828793774,4.304020752269779,4.243060959792477,4.412710765239948,4.815304798962386,5.08378728923476,5.011413748378729,4.777950713359274,4.219974059662776,4.145265888456549,4.113359273670557,3.97769130998703,3.8988326848249026,3.8539559014267186,3.7463035019455253,3.6311284046692607,3.5364461738002597,3.469260700389105,3.4383916990920884,3.4638132295719846,3.8734111543450065,4.481971465629053,5.298054474708171,6.23450064850843,6.6977950713359276,6.116472114137483,4.355642023346303,3.724254215304799,4.555123216601816,5.960570687418936,6.862516212710766,5.402334630350194,4.443579766536965,3.8575875486381324
1.5971465629053179,1.882230869001297,1.7769130998702984,1.9437094682230869,2.430350194552529,3.339040207522698,3.6944228274967577,3.975875486381323,4.428015564202335,4.193774319066148,4.789623865110246,5.167055771725032,4.245395590142672,4.153826199740596,4.285343709468223,4.3341115434500646,4.430869001297017,4.455512321660182,4.4365758754863815,4.589364461738002,4.557717250324254,4.4399481193255514,4.281712062256809,4.311284046692607,4.2845654993514914,4.291569390402075,4.221271076523995,4.08378728923476,4.018677042801556,4.001556420233463,3.8490272373540857,3.736964980544747,3.668482490272374,3.5527885862516215,3.6010376134889754,3.8264591439688718,4.110765239948119,4.649546044098574,5.411932555123216,5.956679636835278,5.926329442282749,5.577431906614786,4.5297016861219195,4.108949416342412,4.969909208819715,5.967574578469519,6.213488975356679,4.940077821011673,4.065629053177691,3.856290531776913
2.048249027237354,2.3891050583657587,2.0505836575875485,2.001297016861219,2.187029831387808,2.642023346303502,2.9118028534370946,3.816342412451362,4.520363164721141,4.233722438391699,4.07704280155642,4.426199740596628,4.396887159533074,4.250324254215305,4.3517509727626456,4.4430609597924775,4.526588845654993,4.663553826199741,4.67496757457847,4.591180285343709,4.5105058365758754,4.455252918287938,4.503242542153048,4.5284046692607,4.506874189364462,4.422568093385214,4.384176394293126,4.242282749675746,4.18443579766537,4.140856031128404,4.027496757457847,3.91284046692607,3.7883268482490275,3.6332036316472114,4.020492866407263,4.724254215304799,4.285862516212711,4.593514915693904,5.114137483787289,4.807263294422827,4.935408560311284,5.353047989623865,4.713618677042802,4.231906614785992,4.752529182879377,5.537483787289235,5.485862516212711,4.390402075226978,4.0536964980544745,4.518547341115434
1.7673151750972764,1.8054474708171206,2.0168612191958495,3.041763942931258,3.0536964980544745,2.7667963683527885,3.614785992217899,4.822049286640726,4.453955901426719,3.921660181582361,3.9924773022049287,4.040985732814526,4.209597924773022,4.343709468223087,4.433203631647212,4.583657587548638,4.706614785992218,4.822568093385214,4.855252918287937,4.815045395590142,4.700389105058366,4.657328145265889,4.691050583657588,4.709208819714656,4.691828793774319,4.587808041504539,4.572243839169909,4.446433203631647,4.330739299610895,4.2861219195849545,4.207003891050584,4.085084306095979,3.971206225680934,3.776913099870298,4.129442282749675,4.617380025940337,4.319066147859922,4.2604409857328145,4.384695201037614,4.372243839169909,4.755123216601816,5.224383916990921,4.765758754863813,4.389883268482491,4.724513618677043,5.508949416342412,5.255252918287938,4.346044098573281,4.824124513618677,5.3341115434500646
1.835538261997406,2.0887159533073927,2.253437094682231,2.874448767833982,3.6661478599221793,3.980804150453956,4.066407263294423,4.976913099870298,4.201815823605707,4.042801556420233,4.18313878080415,4.057328145265888,4.250324254215305,4.43916990920882,4.563164721141375,4.686121919584955,4.853177691309987,4.942153047989624,5.015045395590143,5.0378728923476,5.007522697795071,5.01348897535668,4.996108949416342,4.969130998702983,4.932555123216602,4.839948119325551,4.8116731517509725,4.661997405966278,4.550972762645914,4.46485084306096,4.382879377431907,4.271854734111543,4.169390402075226,4.065369649805447,4.21686121919585,4.248767833981842,4.1499351491569385,4.171206225680933,4.212970168612192,4.21348897535668,4.332036316472114,4.722178988326848,5.179507133592736,5.422568093385213,5.551491569390402,5.604928664072633,5.101686121919585,4.821530479896238,5.310246433203631,4.818677042801556
1.853177691309987,2.9426718547341113,3.1929961089494165,3.1447470817120626,2.999740596627756,4.2075226977950715,5.25810635538262,5.160311284046692,4.180025940337224,5.5201037613488975,5.66018158236057,4.607003891050583,4.398702983138781,4.438910505836576,4.6594033722438395,4.885084306095979,5.091050583657587,5.1979247730220495,5.2957198443579765,5.329701686121919,5.430609597924772,5.40207522697795,5.340337224383917,5.322697795071336,5.248508430609598,5.085343709468223,5.048767833981842,4.911284046692606,4.7540856031128405,4.639169909208819,4.573800259403372,4.499092088197147,4.350972762645914,4.301945525291829,4.325551232166018,4.343190661478599,4.314396887159533,4.251102464332036,4.30272373540856,4.2972762645914395,4.509208819714656,4.7411154345006485,5.412970168612191,5.859143968871595,5.667444876783398,5.000259403372244,4.977431906614786,5.287937743190661,4.444357976653697,3.8303501945525293
2.7247730220492867,3.572762645914397,5.061997405966277,5.25810635538262,3.9608300907911804,3.8959792477302204,5.665888456549935,5.644876783398184,4.992477302204929,5.564721141374838,5.170168612191958,4.402334630350195,4.382619974059662,4.418417639429313,4.677561608300908,4.920363164721142,5.5906614785992215,5.98443579766537,5.592996108949416,5.720622568093385,5.760051880674449,5.787808041504539,5.794293125810635,5.701167315175097,5.568612191958495,5.433203631647211,5.320622568093385,5.1338521400778205,4.976134889753567,4.905577172503242,4.80881971465629,4.762645914396887,4.604409857328145,4.510765239948119,4.510765239948119,4.476005188067445,4.406485084306096,4.3037613488975355,4.409597924773022,4.7717250324254215,5.188586251621271,5.29597924773022,5.2861219195849545,4.9494163424124515,4.763164721141375,4.653955901426719,4.802853437094682,4.690012970168612,4.385473411154345,3.555123216601816
2.814267185473411,3.5831387808041506,4.612970168612192,6.294422827496758,6.278858625162128,4.865110246433203,6.371725032425422,7.1016861219195855,5.553047989623865,4.366018158236057,4.54189364461738,4.397665369649806,4.4715953307393,4.622568093385214,4.803112840466926,4.9478599221789885,5.395590142671854,5.73177691309987,5.662516212710765,6.003112840466926,6.1948119325551225,6.2586251621271085,6.205966277561608,6.04798962386511,5.852140077821011,5.7364461738002595,5.571725032425421,5.373281452658884,5.253437094682231,5.185473411154345,5.111024643320363,5.017120622568093,4.862775616083009,4.7507133592736706,4.705058365758755,4.622827496757457,4.485862516212711,4.412970168612192,4.6451361867704275,4.828274967574578,4.934111543450065,5.065888456549935,4.732555123216602,4.578728923476005,4.480155642023346,4.783657587548638,4.591180285343709,3.842023346303502,3.8430609597924774,3.74189364461738
3.426199740596628,5.513099870298314,5.879636835278858,6.255771725032426,7.345525291828794,6.169390402075226,7.7219195849546045,7.208819714656291,5.241504539559014,4.205447470817121,4.19662775616083,4.327626459143969,4.436057068741894,4.626977950713359,4.756160830090791,4.957198443579767,5.295201037613489,5.680933852140077,6.078080415045395,6.370687418936447,6.696757457846952,6.713618677042802,6.6129701686121924,6.436316472114138,6.244357976653697,6.027237354085603,5.836316472114137,5.710765239948119,5.623605706874189,5.538780804150454,5.456031128404669,5.328923476005188,5.157198443579766,5.023865110246433,4.951750972762646,4.799740596627756,4.636316472114137,4.447470817120623,4.372503242542153,4.377950713359273,4.417898832684825,4.612710765239948,4.44798962386511,4.3885862516212715,4.4189364461738005,4.542671854734111,4.489234760051881,4.053437094682231,3.7945525291828797,3.270298313878081
3.945525291828794,5.776653696498054,6.268741893644618,6.974837872892348,7.659922178988327,7.946562905317769,7.621271076523995,6.3810635538262,4.90272373540856,3.961348897535668,4.051880674448768,4.237354085603113,4.4093385214007785,4.57976653696498,4.7395590142671855,5.037094682230869,5.371465629053177,5.7813229571984435,6.129442282749675,6.55875486381323,7.006485084306096,7.099870298313879,7.083787289234761,6.93514915693904,6.667185473411155,6.411673151750973,6.117509727626459,6.10272373540856,6.040726329442283,5.940337224383916,5.850324254215304,5.65136186770428,5.4448767833981835,5.3309987029831385,5.174578469520103,4.9317769130998705,4.725551232166018,4.5094682230869,4.385992217898833,4.359533073929961,4.355901426718547,4.375097276264591,4.3836575875486385,4.429312581063554,4.6435797665369645,5.055512321660181,4.601037613488975,4.1883268482490275,3.8241245136186772,3.1356679636835283
3.3476005188067446,3.9880674448767834,4.632684824902723,6.2381322957198435,7.785732814526589,7.3789883268482495,6.5872892347600525,5.033203631647211,4.386511024643321,3.989105058365759,3.974578469520104,4.140856031128404,4.338002594033722,4.45136186770428,4.678858625162127,4.985992217898833,5.354863813229572,5.738261997405966,6.173800259403372,6.7094682230869,7.273151750972763,7.466407263294423,7.6526588845655,7.580025940337225,7.343968871595331,7.131258106355383,6.7411154345006485,6.7011673151750974,6.549416342412452,6.4269779507133595,6.289494163424125,6.005188067444877,5.76083009079118,5.569649805447471,5.280155642023346,4.978469520103761,4.754604409857328,4.5906614785992215,4.471076523994812,4.389883268482491,4.378728923476005,4.404150453955902,4.507911802853437,4.572762645914397,5.09935149156939,5.079896238651102,4.169909208819714,3.5351491569390405,3.249805447470817,3.1496757457846956
2.2632944228274967,3.255771725032426,4.681971465629053,6.197146562905317,6.633203631647212,5.377172503242542,4.4718547341115436,3.8555123216601817,3.6708171206225684,3.845136186770428,3.9398184176394295,4.091569390402075,4.205447470817121,4.368352788586251,4.691828793774319,5.019714656290532,5.41556420233463,5.946303501945525,6.4189364461738005,6.91284046692607,7.553566796368353,8.126848249027237,8.315175097276263,8.336446173800258,8.343709468223086,8.592736705577172,8.246952010376134,7.5281452658884564,7.256290531776913,7.050583657587549,6.734630350194553,6.371465629053178,6.069260700389105,5.706614785992217,5.3854734111543445,5.076005188067445,4.836575875486381,4.697016861219196,4.688456549935149,4.6290531776913095,4.5841763942931255,4.672373540856031,4.865369649805447,5.257846952010376,5.429312581063553,4.881971465629053,4.154863813229571,3.7901426718547344,4.016083009079118,4.08041504539559
3.6848249027237356,3.800259403372244,4.594293125810635,4.810894941634241,6.3533073929961095,5.701686121919584,4.691569390402075,3.953566796368353,3.6814526588845657,3.800518806744488,3.915693904020752,3.977431906614786,4.065369649805447,4.35071335927367,4.626718547341115,4.991699092088197,5.474708171206226,5.969390402075226,6.48715953307393,7.0664072632944235,7.757976653696498,8.735667963683527,9.18651102464332,9.189105058365758,9.533852140077821,9.943450064850843,9.180544747081711,8.58313878080415,8.098832684824902,7.6000000000000005,7.070038910505837,6.69727626459144,6.35538261997406,5.939818417639429,5.577950713359273,5.216601815823606,5.022049286640726,5.186770428015564,5.1242542153047985,4.905577172503242,4.9911802853437095,5.136446173800259,5.495201037613489,5.597924773022049,5.067185473411154,4.190661478599222,3.708430609597925,3.5738002594033724,3.585473411154345,3.363164721141375
4.843579766536965,5.165758754863813,5.840726329442282,4.958495460440986,6.253696498054476,5.560570687418936,4.705317769130999,4.203631647211414,3.568352788586252,3.761089494163424,3.8765239948119325,3.902983138780804,4.038132295719844,4.301945525291829,4.582879377431906,4.97094682230869,5.391699092088197,5.86692607003891,6.509987029831389,7.103501945525292,7.869520103761349,9.000259403372244,9.844357976653697,10.161608300907911,10.663035019455252,11.155382619974059,10.54059662775616,9.722697795071335,8.88715953307393,8.148897535667963,7.5055771725032425,7.083787289234761,6.64591439688716,6.144487678339818,5.693644617380025,5.428534370946822,5.3566796368352785,5.322697795071336,5.011932555123217,5.001815823605707,5.631647211413748,5.737483787289235,5.467704280155642,4.228793774319066,4.215304798962387,3.646952010376135,2.9745784695201034,2.908171206225681,2.9470817120622566,2.9683527885862513
3.9706874189364463,5.758495460440986,6.6715953307393,6.1662775616083,5.921919584954604,4.535667963683528,3.648508430609598,3.730998702983139,3.5299610894941638,3.545784695201038,3.651621271076524,3.711802853437095,3.8892347600518806,4.16420233463035,4.553307392996109,4.9447470817120625,5.238132295719844,5.765499351491569,6.382619974059663,7.073151750972763,8.020492866407263,9.18313878080415,10.462256809338522,11.438132295719845,12.217120622568093,12.821011673151752,12.11621271076524,10.859922178988326,9.856290531776914,8.810894941634242,8.077821011673151,7.4526588845654995,6.810635538261998,6.303242542153049,5.999481193255512,5.934889753566796,5.418417639429312,4.431647211413749,4.0889753566796365,5.147859922178988,5.569130998702983,4.640207522697795,4.427496757457847,3.6596627756160833,3.3623865110246434,3.31958495460441,2.849546044098573,2.550972762645914,2.482490272373541,2.4083009079118027
3.2103761348897537,5.0505836575875485,5.960051880674448,5.5377431906614785,5.554604409857328,4.2347600518806745,3.4560311284046694,3.2,3.3859922178988326,3.4062256809338525,3.4256809338521403,3.4861219195849547,3.608041504539559,3.9603112840466927,4.317250324254215,4.657068741893645,5.068741893644617,5.634241245136186,6.22101167315175,6.942412451361868,7.8964980544747085,9.14189364461738,10.711802853437094,12.489234760051882,14.174578469520105,14.812970168612193,13.645395590142673,12.119325551232166,10.604409857328145,9.36420233463035,8.475486381322957,7.623086900129702,6.803372243839171,6.170168612191958,5.971465629053177,5.670557717250324,5.057328145265888,4.289753566796368,3.748378728923476,4.349675745784695,4.535667963683528,3.8892347600518806,3.3302204928664074,3.1182879377431902,2.8249027237354083,2.7424124513618677,2.544747081712062,2.315953307392996,2.1525291828793773,2.1442282749675745
3.8962386511024643,5.416342412451361,5.265369649805447,4.982879377431907,5.336705577172503,4.250583657587549,3.645395590142672,3.136186770428016,3.2287937743190662,3.3011673151750975,3.2565499351491574,3.3317769130998705,3.387548638132296,3.761089494163424,4.056290531776913,4.377172503242542,4.828015564202334,5.42438391699092,6.149675745784695,6.815045395590143,7.5424124513618676,8.920363164721142,10.612451361867704,12.757457846952011,15.311802853437095,16.138002594033722,14.40674448767834,12.344228274967573,10.715693904020752,9.453955901426719,8.391958495460441,7.4495460440985735,6.634500648508431,5.897276264591439,5.370428015564202,4.955642023346304,4.440466926070039,4.078339818417639,3.7867704280155645,3.620752269779507,3.54526588845655,3.5483787289234763,3.189105058365759,2.7924773022049285,2.6892347600518804,2.532036316472114,2.3569390402075228,2.1654993514915692,2.170428015564202,2.171984435797665
4.46147859922179,5.01011673151751,4.304798962386511,4.886640726329442,5.241763942931258,4.047730220492866,3.4591439688715955,3.1053177691309983,3.085084306095979,3.0923476005188064,3.042023346303502,3.1564202334630354,3.2443579766536965,3.4957198443579767,3.853177691309987,4.2186770428015565,4.726588845654994,5.344228274967574,5.908690012970168,6.44254215304799,7.285084306095979,8.606225680933852,10.418417639429313,12.540077821011675,14.736964980544748,15.302983138780805,13.999221789883268,12.17769130998703,10.572243839169909,9.202594033722438,8.108949416342412,7.212710765239948,6.427756160830091,5.777172503242542,5.200259403372244,4.769649805447471,4.411932555123217,4.078080415045395,3.7976653696498057,3.5660181582360573,3.3984435797665373,3.2715953307393,3.,2.807522697795071,2.6887159533073928,2.4409857328145264,2.337224383916991,2.175616083009079,2.0459143968871594,1.918028534370947
4.479377431906615,3.5434500648508434,3.5818417639429314,4.937743190661479,5.230609597924773,4.212191958495461,3.6931258106355385,3.1097276264591436,2.986770428015564,3.062516212710765,2.8972762645914396,2.945006485084306,3.1621271076524,3.4059662775616086,3.7105058365758756,4.104280155642023,4.659922178988327,5.1979247730220495,5.670038910505836,6.286640726329443,7.2075226977950715,8.403112840466926,9.809079118028533,11.464591439688716,12.811154345006486,13.194033722438393,12.504798962386513,11.686900129701685,10.330739299610894,8.829571984435798,7.776134889753567,6.9271076523994815,6.2365758754863805,5.659403372243839,5.162645914396887,4.749416342412451,4.392736705577173,4.061219195849546,3.7914396887159536,3.556679636835279,3.3540856031128405,3.118806744487678,2.908171206225681,2.7066147859922176,2.5392996108949415,2.3929961089494163,2.262516212710765,2.1156939040207523,1.9976653696498055,1.9219195849546045
3.9654993514915695,2.877561608300908,4.4905317769131,5.129442282749675,5.318547341115434,4.526070038910506,3.22568093385214,2.9948119325551232,2.885343709468223,2.893125810635538,2.7750972762645914,2.852658884565499,3.0920881971465626,3.2946822308690016,3.5304798962386514,3.9512321660181584,4.426718547341116,4.938780804150454,5.422827496757457,6.0939040207522694,6.912321660181583,7.8420233463035025,8.864072632944229,10.072632944228275,10.908171206225681,11.218677042801556,10.855771725032424,10.831647211413747,9.94526588845655,8.49935149156939,7.55745784695201,6.768871595330739,6.090012970168612,5.557198443579766,5.041504539559014,4.654474708171207,4.3284046692607,3.9815823605706875,3.7348897535667964,3.4845654993514916,3.2446173800259404,3.0391699092088196,2.8954604409857327,2.74189364461738,2.5315175097276263,2.3569390402075228,2.2108949416342414,2.077302204928664,1.9639429312581065,1.8814526588845655
3.0007782101167315,3.0360570687418935,4.269779507133593,3.971465629053178,4.970428015564202,4.461219195849546,3.594033722438392,3.1865110246433206,2.7250324254215306,2.6220492866407263,2.6443579766536964,2.780544747081712,2.9120622568093384,3.0871595330739297,3.3465629053177692,3.663553826199741,4.1691309987029825,4.640466926070038,5.156160830090791,5.798702983138781,6.302983138780805,6.979247730220493,7.978988326848249,8.72710765239948,9.169390402075226,9.645914396887159,9.629831387808041,9.5473411154345,8.86614785992218,8.0905317769131,7.567055771725032,6.754345006485084,5.98988326848249,5.4687418936446175,5.025421530479896,4.519066147859922,4.114137483787289,3.840207522697795,3.5815823605706876,3.394293125810636,3.166277561608301,2.9942931258106356,2.851102464332036,2.6796368352788584,2.4669260700389106,2.338780804150454,2.215045395590143,2.0765239948119323,1.9512321660181582,1.8142671854734111
2.7066147859922176,2.6827496757457845,2.9826199740596624,3.900129701686122,4.814526588845655,4.633203631647211,3.4731517509727627,2.9683527885862513,2.6057068741893645,2.554345006485084,2.5263294422827496,2.6329442282749675,2.7208819714656287,2.941634241245136,3.141115434500649,3.48715953307393,3.961608300907912,4.385992217898833,4.863813229571984,5.443839169909208,5.925291828793774,6.414526588845655,7.183138780804151,7.618417639429313,7.985992217898833,8.405966277561609,8.396887159533074,8.465369649805448,8.11284046692607,7.444876783398184,6.940077821011673,6.477561608300908,5.876783398184176,5.278858625162127,4.8871595330739295,4.474189364461738,4.024383916990921,3.700129701686122,3.469779507133593,3.262256809338522,3.0734111543450062,2.93177691309987,2.7621271076523994,2.5854734111543447,2.437094682230869,2.3037613488975355,2.1727626459143967,2.04798962386511,1.9509727626459143,1.908171206225681
2.345525291828794,2.36757457846952,3.5255512321660185,4.168871595330739,3.619195849546044,3.943968871595331,3.1255512321660186,2.5377431906614785,2.478858625162127,2.45473411154345,2.3683527885862516,2.4389105058365756,2.5551232166018156,2.701426718547341,2.9522697795071333,3.3442282749675747,3.7302204928664073,4.14396887159533,4.567833981841764,5.067444876783398,5.569390402075227,6.059143968871595,6.5904020752269785,7.200259403372244,7.527107652399481,7.376913099870299,7.513099870298314,7.556420233463035,7.415045395590143,6.966796368352789,6.375875486381323,5.962386511024643,5.595330739299611,5.134630350194552,4.632944228274967,4.274189364461738,3.9429312581063556,3.5642023346303504,3.3333333333333335,3.1719844357976656,3.030609597924773,2.8547341115434497,2.6985732814526586,2.522178988326848,2.375875486381323,2.2793774319066147,2.1779507133592735,2.0830090791180282,1.9976653696498055,2.0230869001297016
2.6972762645914394,2.2396887159533074,3.203631647211414,3.5701686121919587,3.357976653696498,2.9086900129701685,3.4064850843060963,2.74863813229572,2.2474708171206226,2.3862516212710765,2.22905317769131,2.2396887159533074,2.3699092088197147,2.5294422827496756,2.7714656290531776,3.1341115434500653,3.450064850843061,3.7776913099870297,4.17639429312581,4.56083009079118,5.113359273670557,5.609597924773022,6.078858625162127,6.545006485084307,6.6881971465629055,6.6256809338521405,6.871854734111544,7.001037613488975,6.778469520103762,6.5431906614786,6.209079118028534,5.777950713359274,5.284824902723735,4.924254215304799,4.595330739299611,4.167833981841763,3.7976653696498057,3.514137483787289,3.273411154345007,3.0617380025940335,2.904539559014267,2.766018158236057,2.6181582360570688,2.5068741893644617,2.3634241245136187,2.234241245136187,2.1618677042801555,2.081712062256809,1.9987029831387808,1.9815823605706875
3.764721141374838,2.1092088197146563,2.348378728923476,2.6975356679636833,3.1348897535667968,2.200518806744488,2.8690012970168612,3.089494163424124,2.1278858625162127,2.1963683527885864,2.0583657587548636,2.1042801556420234,2.2134889753566798,2.3652399481193256,2.530739299610895,2.834760051880674,3.1595330739299614,3.4830090791180286,3.819455252918288,4.168871595330739,4.709208819714656,5.114396887159533,5.508430609597925,5.815304798962386,5.821011673151751,6.005966277561608,6.294682230869002,6.4944228274967575,6.446692607003891,6.318547341115435,5.9159533073929955,5.52295719844358,5.120622568093385,4.664332036316472,4.488456549935149,4.094941634241245,3.6230869001297017,3.4370946822308692,3.242282749675746,3.033722438391699,2.781841763942931,2.6280155642023346,2.5284046692607003,2.3989623865110246,2.306355382619974,2.2124513618677044,2.143450064850843,2.067444876783398,2.019195849546044,2.0251621271076523
4.020752269779507,2.1107652399481194,2.5356679636835278,2.3252918287937745,2.6342412451361867,1.9979247730220493,2.649805447470817,2.6957198443579764,1.9971465629053178,1.9206225680933853,1.8923476005188067,1.888715953307393,1.9989623865110246,2.1364461738002594,2.3022049286640724,2.586770428015564,2.9776913099870295,3.176134889753567,3.3867704280155646,3.8106355382619976,4.251880674448768,4.604409857328145,5.047470817120622,5.359014267185473,5.346562905317769,5.519325551232166,5.817639429312581,6.040207522697795,6.126329442282749,6.0184176394293125,5.593514915693904,5.22230869001297,4.822049286640726,4.539559014267185,4.208041504539559,3.872632944228275,3.5434500648508434,3.3914396887159537,3.170168612191959,2.9294422827496756,2.6970168612191956,2.517509727626459,2.396368352788586,2.288456549935149,2.2057068741893646,2.145006485084306,2.098313878080415,2.078339818417639,2.0757457846952008,2.1522697795071335
3.8975356679636834,2.794552529182879,2.091309987029831,2.455771725032425,1.5151750972762645,2.025940337224384,2.5613488975356677,2.1029831387808042,1.725810635538262,1.6573281452658886,1.772762645914397,1.7009079118028536,1.7392996108949417,1.8962386511024645,2.184954604409857,2.4944228274967575,2.7317769130998704,2.7942931258106354,3.026977950713359,3.4900129701686122,3.884046692607004,4.184695201037614,4.608560311284046,4.870038910505836,4.962905317769131,5.1035019455252915,5.346562905317769,5.456290531776913,5.532295719844358,5.430090791180285,5.359014267185473,5.008560311284047,4.686900129701686,4.4798962386511025,4.066407263294423,3.802334630350195,3.5351491569390405,3.309727626459144,3.0648508430609596,2.8098573281452657,2.606225680933852,2.4246433203631645,2.2734111543450064,2.183398184176394,2.1092088197146563,2.052658884565499,2.040207522697795,2.1011673151750974,2.1566796368352787,2.45810635538262
3.455252918287938,3.0806744487678337,1.9538261997405966,1.8155642023346303,1.5317769130998702,2.6119325551232166,2.105058365758755,1.596887159533074,1.4560311284046692,1.5219195849546043,1.6036316472114138,1.5662775616083011,1.5675745784695203,1.7543450064850843,2.042023346303502,2.2793774319066147,2.3540856031128405,2.512581063553826,2.777172503242542,3.222827496757458,3.4705577172503244,3.7623865110246433,4.2059662775616085,4.563942931258106,4.580544747081712,4.665629053177692,4.878599221789883,4.972243839169909,5.002853437094682,4.95538261997406,4.818677042801556,4.598962386511024,4.525810635538262,4.345784695201037,3.9883268482490273,3.737483787289235,3.4996108949416342,3.2280155642023347,2.998702983138781,2.748378728923476,2.567315175097276,2.3909208819714656,2.1810635538261995,2.0806744487678337,2.0233463035019454,1.9670557717250325,1.9945525291828794,2.345525291828794,2.6134889753566797,2.9372243839169907
1.936964980544747,1.5652399481193258,2.161089494163424,1.9507133592736705,1.2409857328145266,2.1758754863813228,1.7299610894941635,1.1756160830090792,1.3535667963683526,1.433981841763943,1.37094682230869,1.351232166018158,1.4438391699092088,1.5055771725032425,1.6153047989623865,1.8378728923476007,2.0536964980544745,2.327367055771725,2.588067444876783,2.835019455252918,3.1086900129701682,3.434500648508431,3.783916990920882,4.058365758754864,4.128664072632944,4.19118028534371,4.380285343709468,4.517769130998703,4.607003891050583,4.610376134889753,4.438651102464332,4.42568093385214,4.247211413748379,4.094682230869001,3.9006485084306095,3.6108949416342413,3.3603112840466927,3.126848249027238,2.9169909208819713,2.6923476005188065,2.4178988326848248,2.3037613488975355,2.127107652399481,1.9740596627756162,1.9141374837872893,1.86147859922179,2.008041504539559,2.5520103761348896,3.0778210116731515,3.545784695201038
1.448249027237354,1.9351491569390402,3.297535667963684,1.9815823605706875,1.0492866407263295,1.9271076523994812,1.3341115434500648,1.0562905317769131,1.34189364461738,1.3553826199740595,1.1551232166018157,1.167833981841764,1.2352788586251622,1.2928664072632943,1.4448767833981842,1.6399481193255514,1.8365758754863815,2.125810635538262,2.3784695201037613,2.58651102464332,2.8907911802853437,3.1512321660181586,3.35201037613489,3.4915693904020753,3.6474708171206225,3.817898832684825,3.993774319066148,4.07367055771725,4.225940337224384,4.280933852140078,4.161348897535667,4.113878080415045,4.100907911802853,3.909727626459144,3.7317769130998704,3.5574578469520106,3.244876783398184,2.9854734111543446,2.718547341115434,2.515953307392996,2.299610894941634,2.1654993514915692,2.0119325551232166,1.8653696498054475,1.7994811932555124,1.7833981841763944,1.9859922178988327,2.533333333333333,3.0261997405966277,3.4861219195849547
1.6287937743190664,1.4505836575875486,2.5421530479896237,2.3398184176394294,1.0194552529182879,1.6352788586251623,1.2438391699092088,1.0085603112840467,1.3883268482490272,1.2521400778210117,0.9478599221789884,1.0025940337224384,1.0749675745784695,1.1833981841763943,1.3426718547341114,1.4822308690012969,1.6236057068741894,1.8002594033722439,2.151750972762646,2.4435797665369647,2.6508430609597924,2.781841763942931,2.9841763942931254,3.12295719844358,3.318028534370947,3.4957198443579767,3.6944228274967577,3.8217898832684827,3.935927367055772,3.9540856031128406,3.9431906614785994,4.036316472114137,3.990661478599222,4.086381322957198,4.164721141374837,3.4508430609597927,3.0233463035019454,2.7525291828793774,2.601815823605707,2.393514915693904,2.201556420233463,2.0573281452658883,1.9325551232166018,1.8028534370946823,1.709987029831388,1.7110246433203633,2.0311284046692606,2.540337224383917,2.981841763942931,3.4658884565499353
1.445136186770428,1.1232166018158236,1.5123216601815823,1.9299610894941635,1.1540856031128404,1.9299610894941635,1.3424124513618676,0.8539559014267186,1.245136186770428,1.4184176394293124,0.8708171206225681,0.8830090791180286,0.9878080415045396,1.0658884565499351,1.198184176394293,1.353047989623865,1.4785992217898831,1.65810635538262,1.9107652399481194,2.1476005188067444,2.3255512321660183,2.4230869001297015,2.6396887159533073,2.8747081712062257,3.0391699092088196,3.169649805447471,3.3919584954604414,3.585732814526589,3.6884565499351494,3.767833981841764,3.998443579766537,4.694422827496758,4.767315175097276,4.734111543450065,3.979507133592737,3.3701686121919585,3.0601815823605705,2.6588845654993514,2.4674448767833983,2.305836575875486,2.117769130998703,1.9315175097276265,1.8575875486381324,1.7948119325551233,1.6482490272373542,1.6526588845654995,1.996887159533074,2.361608300907912,2.8306095979247727,3.260181582360571
0.6062256809338521,0.6407263294422827,1.4103761348897534,1.6671854734111544,1.0124513618677042,1.8287937743190663,1.66147859922179,0.8415045395590143,1.020752269779507,1.3652399481193256,0.8251621271076525,0.7597924773022049,0.8570687418936447,0.950194552529183,1.0163424124513618,1.1719844357976654,1.3325551232166017,1.4744487678339817,1.643839169909209,1.917769130998703,2.086381322957198,2.18651102464332,2.3553826199740597,2.6173800259403373,2.7776913099870297,2.852399481193255,3.131517509727627,3.3883268482490276,3.471076523994812,3.814785992217899,4.642282749675745,5.695719844357976,5.870038910505836,4.604409857328145,3.9364461738002596,4.102464332036316,3.49390402075227,2.90609597924773,2.5086900129701686,2.1460440985732814,2.0153047989623865,1.8619974059662776,1.7268482490272374,1.6539559014267187,1.5636835278858627,1.57769130998703,1.795330739299611,2.1966277561608303,2.472632944228275,3.1501945525291832
1.1833981841763943,0.7880674448767835,0.6900129701686122,1.1844357976653697,0.7686121919584954,1.251621271076524,1.8783398184176394,0.7522697795071336,0.9455252918287937,1.2858625162127106,0.8754863813229572,0.6835278858625162,0.7719844357976653,0.8191958495460442,0.845136186770428,0.943450064850843,1.1574578469520103,1.31621271076524,1.43242542153048,1.6383916990920884,1.8204928664072633,1.9725032425421531,2.1380025940337224,2.30609597924773,2.4604409857328147,2.684824902723735,2.9201037613488974,3.0604409857328143,3.548897535667964,4.06355382619974,4.761348897535668,5.470817120622568,5.356420233463035,4.5457846952010375,5.0985732814526585,4.455771725032426,3.4015564202334634,2.8002594033722437,2.458625162127108,2.019455252918288,1.7540856031128405,1.7592736705577172,1.6168612191958496,1.51284046692607,1.4233463035019454,1.461219195849546,1.7141374837872894,1.9377431906614786,2.3942931258106355,3.2295719844357977
1.697016861219196,1.17431906614786,0.564461738002594,0.5802853437094682,0.4542153047989624,0.8783398184176394,1.748378728923476,0.7618677042801556,0.8508430609597926,1.3535667963683526,1.0329442282749675,0.622568093385214,0.6765239948119325,0.7136186770428015,0.7201037613488975,0.8181582360570688,0.9642023346303502,1.0731517509727626,1.246692607003891,1.4428015564202334,1.5662775616083011,1.6863813229571984,1.9190661478599222,2.0407263294422826,2.1748378728923474,2.4002594033722437,2.6090791180285344,2.938002594033722,3.7559014267185473,4.233981841763943,4.35071335927367,4.854474708171206,4.956420233463035,5.616083009079118,5.304280155642023,4.011673151750973,3.524773022049287,3.2946822308690016,2.798443579766537,2.224643320363165,1.7618677042801558,1.6290531776913102,1.53852140077821,1.4837872892347599,1.333592736705577,1.3948119325551231,1.6365758754863815,1.9325551232166018,2.4243839169909207,3.0085603112840467
1.42568093385214,0.9802853437094683,0.8134889753566797,0.7642023346303501,0.9844357976653697,0.5431906614785992,1.340077821011673,0.9424124513618677,0.8116731517509728,1.2980544747081713,0.9712062256809338,0.8124513618677043,0.6313878080415045,0.608041504539559,0.5891050583657588,0.6775616083009078,0.7774319066147859,0.8609597924773023,1.0635538261997406,1.1844357976653697,1.3058365758754864,1.4544747081712062,1.6923476005188067,1.80337224383917,1.9009079118028536,2.014526588845655,2.3089494163424122,2.820492866407263,3.068741893644617,3.4721141374837874,4.042801556420233,4.587548638132295,4.125551232166018,5.394033722438391,5.30609597924773,4.495719844357977,3.690791180285344,3.1302204928664077,2.751491569390402,2.3089494163424122,1.9156939040207523,1.5198443579766536,1.2894941634241244,1.2926070038910504,1.2625162127107652,1.2635538261997405,1.5444876783398183,1.8913099870298313,2.2861219195849545,2.920881971465629
1.2391699092088198,1.2236057068741892,1.0863813229571984,1.3634241245136187,2.176913099870298,0.8822308690012971,0.5169909208819714,0.8599221789883269,0.7405966277561608,1.2057068741893644,0.8145265888456551,0.9880674448767834,0.7559014267185473,0.6422827496757457,0.5180285343709468,0.5154345006485084,0.6365758754863813,0.735408560311284,0.8197146562905319,0.9657587548638132,1.1182879377431907,1.2785992217898832,1.3509727626459143,1.45810635538262,1.5605706874189367,1.7203631647211415,1.9981841763942931,2.3683527885862516,3.0443579766536963,3.7797665369649804,3.719844357976654,3.4194552529182882,4.486900129701686,5.196108949416343,4.531517509727626,4.187289234760052,3.778988326848249,2.9284046692607,2.433722438391699,2.0845654993514913,1.7309987029831388,1.4412451361867704,1.1683527885862517,1.0640726329442283,1.064332036316472,1.1260700389105058,1.4744487678339817,1.840466926070039,2.2552529182879377,2.99662775616083
1.4228274967574577,1.5525291828793772,1.278858625162127,1.1203631647211414,1.5299610894941633,0.9590142671854734,0.3966277561608301,0.5071335927367056,0.7647211413748378,0.9476005188067446,0.6158236057068742,0.8145265888456551,0.717769130998703,0.7538261997405966,0.6453955901426718,0.3979247730220493,0.5330739299610895,0.5748378728923476,0.6858625162127108,0.8365758754863813,0.969390402075227,1.0814526588845654,1.054993514915694,1.1862516212710765,1.3102464332036317,1.3968871595330739,1.7896238651102465,2.460181582360571,3.0666666666666664,2.7112840466926067,2.5872892347600516,3.3320363164721143,3.960051880674449,4.893385214007782,4.15745784695201,3.2905317769131,3.4446173800259405,3.057846952010376,2.42230869001297,2.0197146562905317,1.650064850843061,1.3488975356679636,1.1190661478599222,0.9875486381322958,0.9722438391699092,1.0752269779507133,1.3566796368352787,1.801556420233463,2.240726329442283,2.593774319066148
1.4897535667963682,1.136964980544747,1.1343709468223087,1.2472114137483787,1.0477302204928665,0.9735408560311284,0.5891050583657588,0.611154345006485,0.5162127107652399,0.5447470817120622,0.3559014267185473,0.39403372243839174,0.5701686121919585,0.7839169909208821,0.7530479896238651,0.5001297016861219,0.39870298313878083,0.4544747081712062,0.5738002594033722,0.7022049286640726,0.825940337224384,0.8391699092088197,0.8036316472114138,0.9605706874189365,1.0217898832684824,1.2251621271076523,1.8243839169909208,2.001556420233463,1.8959792477302206,1.9942931258106356,2.7429312581063554,2.9195849546044097,3.6440985732814526,4.366018158236057,3.7107652399481195,2.862775616083009,2.65473411154345,2.7312581063553827,2.1823605706874187,1.842282749675746,1.5862516212710767,1.33852140077821,1.0518806744487679,0.8744487678339818,0.8939040207522698,0.9673151750972763,1.3247730220492866,1.6191958495460441,1.830869001297017,2.430090791180285
1.8684824902723736,1.3294422827496757,1.3795071335927367,1.5058365758754864,1.4591439688715953,1.0041504539559014,0.717769130998703,1.0749675745784695,1.122697795071336,0.7922178988326849,0.44124513618677047,0.3125810635538262,0.4640726329442283,0.619455252918288,0.6970168612191958,0.5603112840466926,0.2894941634241245,0.3465629053177691,0.4549935149156939,0.5380025940337224,0.5571984435797666,0.5507133592736706,0.5979247730220493,0.7398184176394292,0.7600518806744487,1.0607003891050584,1.415823605706874,1.201556420233463,1.6202334630350195,2.1263294422827497,2.023865110246433,2.5068741893644617,3.0202334630350194,3.1322957198443584,2.917769130998703,2.304280155642023,2.070817120622568,2.1553826199740596,1.917769130998703,1.5914396887159534,1.4765239948119324,1.300129701686122,1.0274967574578469,0.8010376134889754,0.7922178988326849,0.9071335927367056,1.1673151750972763,1.3219195849546044,1.7730220492866409,2.1844357976653694
2.2044098573281454,1.91621271076524,1.4583657587548637,1.5151750972762645,1.0168612191958495,0.6894941634241245,1.1060959792477303,1.3852140077821011,1.4876783398184175,1.1828793774319066,0.8946822308690013,0.40933852140077825,0.4926070038910506,0.43060959792477305,0.7245136186770428,0.35071335927367053,0.20233463035019456,0.24876783398184177,0.3320363164721141,0.3665369649805447,0.3636835278858625,0.45006485084306097,0.4199740596627756,0.5294422827496758,0.6163424124513619,0.7281452658884565,0.7828793774319067,1.1252918287937743,1.6153047989623865,1.609857328145266,1.4822308690012969,1.9802853437094683,2.207003891050584,2.286900129701686,2.382360570687419,2.001815823605707,1.7779507133592738,1.700389105058366,1.5787289234760054,1.4897535667963682,1.2511024643320363,1.1143968871595331,0.9748378728923476,0.7455252918287937,0.7439688715953306,0.8077821011673152,0.9022049286640726,1.1582360570687418,1.4988326848249027,1.7110246433203633
3.038391699092088,2.2664072632944228,1.7309987029831388,1.3092088197146563,0.837094682230869,0.8760051880674449,1.6140077821011674,1.7455252918287938,1.6202334630350195,1.2998702983138781,0.8544747081712063,0.7559014267185473,1.132295719844358,0.35071335927367053,0.25940337224383914,0.22671854734111543,0.2137483787289235,0.1966277561608301,0.22023346303501948,0.22879377431906617,0.25395590142671853,0.2881971465629053,0.23216601815823606,0.280674448767834,0.3214007782101167,0.33488975356679634,0.41193255512321664,0.7439688715953306,1.040207522697795,1.1271076523994812,1.1252918287937743,1.4368352788586252,1.6604409857328146,1.642023346303502,1.6936446173800261,1.566536964980545,1.5058365758754864,1.6106355382619975,1.214267185473411,1.215823605706874,1.1603112840466925,0.9623865110246433,0.8272373540856032,0.6671854734111543,0.6736705577172503,0.6420233463035019,0.8261997405966278,1.0845654993514915,1.3268482490272373,1.8041504539559015