7.9831387808041505,8.500389105058366,10.62101167315175,11.493385214007782,13.060181582360572,13.600259403372245,14.309987029831388,15.155901426718549,15.75330739299611,16.09338521400778,15.74863813229572,15.175356679636836,14.980804150453956,14.942931258106356,14.76342412451362,14.844098573281453,15.77016861219196,15.894682230869002,15.959014267185474,15.492088197146563,14.886381322957199,14.605706874189364,14.650064850843062,15.535408560311284,15.036057068741894,13.173022049286642,12.221271076523994,12.242801556420233,12.033463035019455,12.411932555123215,14.263294422827498,14.727885862516214,14.601297016861219,14.937743190661479,14.974578469520104,14.336186770428016,14.540077821011673,14.536186770428015,13.418158236057069,13.398702983138781,13.335667963683528,11.628534370946822,10.678339818417639,9.346044098573282,7.009597924773022,4.474448767833982,2.763164721141375,2.5089494163424124,2.694682230869001,3.7527885862516213
4.705317769130999,6.823865110246434,8.410635538261998,10.16420233463035,12.304539559014266,13.538261997405966,14.362645914396888,15.039688715953307,15.461219195849546,15.677302204928665,15.645395590142671,15.305577172503243,14.788326848249028,14.650324254215306,14.498054474708171,14.554345006485084,15.283527885862517,15.585992217898832,15.542412451361868,15.236316472114138,14.807782101167316,14.548119325551232,14.41219195849546,15.246433203631648,14.774059662775617,13.227496757457848,12.20881971465629,11.959273670557717,11.894941634241244,11.71284046692607,12.906874189364462,13.059143968871597,12.684565499351493,13.665888456549936,13.360570687418937,12.881193255512322,13.709727626459145,13.384695201037614,11.655771725032425,10.450583657587549,11.382619974059661,11.18988326848249,10.970428015564202,9.867704280155642,7.95875486381323,5.797146562905318,3.2578469520103766,2.4282749675745783,2.783916990920882,3.650064850843061
4.97094682230869,5.240726329442283,8.389623865110247,11.11828793774319,13.246433203631648,14.310246433203632,14.708171206225682,15.112062256809338,15.180804150453957,15.139299610894941,15.380804150453956,15.494163424124514,14.696238651102465,14.263035019455254,14.177431906614787,13.79455252918288,14.281452658884566,14.91413748378729,15.137483787289234,15.190142671854735,14.9094682230869,14.331517509727627,14.186251621271078,14.52970168612192,14.846433203631648,14.156939040207524,12.790142671854735,11.763942931258105,11.622827496757457,11.55745784695201,12.405188067444875,11.519325551232166,10.28119325551232,11.401556420233462,11.527107652399481,10.647470817120622,9.590402075226978,8.030609597924773,7.254215304798962,6.80129701686122,6.739299610894942,6.976913099870298,7.4591439688715955,7.969390402075227,7.880933852140078,5.678339818417639,3.1966277561608303,2.2430609597924773,2.559273670557717,3.611154345006485
6.408041504539559,5.414267185473411,9.179247730220492,11.479377431906615,13.614526588845656,14.480674448767834,14.347081712062257,14.611673151750974,14.926070038910506,14.571465629053177,14.53852140077821,14.924513618677043,13.863813229571985,13.337224383916991,13.509208819714656,13.163164721141376,12.95071335927367,13.639688715953309,14.677302204928665,15.3242542153048,14.824643320363165,13.881452658884566,13.725291828793775,14.470038910505837,15.510246433203632,15.000778210116732,13.690791180285345,12.056290531776913,11.431128404669261,11.316472114137483,12.000778210116732,10.851361867704279,8.580025940337224,8.468482490272374,8.508949416342412,7.546044098573281,6.500907911802853,6.592217898832685,6.593774319066148,6.3035019455252925,5.527107652399481,4.894682230869001,4.742412451361868,4.6946822308690015,5.057328145265888,4.491569390402075,2.9403372243839168,2.2601815823605707,2.3476005188067446,3.517509727626459
7.9060959792477306,7.485603112840467,9.664072632944228,11.199221789883268,12.490012970168614,13.108949416342414,13.419974059662776,13.702204928664074,14.090791180285345,13.730739299610896,13.285343709468224,14.021530479896239,13.884565499351492,13.,12.882230869001297,12.769390402075228,12.726070038910507,13.374578469520104,14.358236057068742,14.568612191958495,13.712321660181583,13.19792477302205,13.111543450064852,14.198184176394294,15.880933852140078,14.665369649805449,13.07418936446174,11.893644617380025,10.96083009079118,10.753307392996108,10.720881971465628,10.816861219195848,8.698573281452658,7.310505836575876,6.750194552529183,6.112062256809338,6.81011673151751,9.497016861219196,10.626199740596627,9.752529182879377,7.713359273670558,6.120103761348897,5.659403372243839,5.09935149156939,4.474448767833982,3.6474708171206225,2.592477302204929,2.156420233463035,2.264591439688716,3.499870298313878
8.83579766536965,9.659662775616082,10.770946822308689,12.09390402075227,12.348378728923475,12.384176394293124,12.589364461738004,13.242801556420234,13.573800259403374,13.216601815823607,12.833203631647212,12.829571984435798,13.980285343709468,13.212970168612193,12.649546044098575,12.498313878080417,12.445914396887158,13.087159533073931,14.02905317769131,14.040726329442283,13.06614785992218,12.768352788586252,12.841763942931259,13.629312581063555,15.231128404669262,14.980804150453956,12.535927367055773,11.087418936446173,9.759792477302204,8.916731517509728,8.90402075226978,9.02775616083009,9.143709468223086,9.792736705577171,8.522697795071336,6.968093385214008,7.786770428015564,11.46822308690013,11.871595330739298,11.144228274967574,9.41219195849546,9.29727626459144,8.931517509727627,8.49260700389105,7.033203631647211,4.516731517509728,2.495460440985733,1.9512321660181582,2.041763942931258,3.867704280155642
9.659922178988326,10.668223086900129,11.999221789883268,12.088715953307393,12.229312581063553,12.283009079118028,12.434500648508429,13.345784695201038,13.59455252918288,12.562645914396889,12.136186770428015,11.301945525291828,13.289494163424125,12.586511024643322,10.998443579766537,11.162127107652399,11.377691309987028,12.852140077821012,15.188845654993516,14.030090791180285,12.688715953307394,12.603372243839171,12.619974059662777,12.573800259403374,13.174578469520105,14.28715953307393,12.923476005188068,10.938261997405966,9.10142671854734,7.199740596627756,6.097535667963683,6.118028534370946,8.727885862516212,12.357457846952009,11.449546044098573,9.463035019455253,9.545784695201037,11.985992217898833,12.106614785992218,11.494682230869001,11.361348897535667,12.145784695201037,11.403891050583656,10.217120622568093,7.695719844357977,4.800259403372244,2.4915693904020753,1.9118028534370948,2.0010376134889754,3.893644617380026
10.134630350194552,11.07029831387808,11.46355382619974,11.666147859922178,11.967055771725033,12.354345006485083,13.207263294422829,13.416342412451362,12.528404669260702,11.144747081712062,10.124773022049286,9.404409857328146,10.465629053177691,10.542671854734111,9.154604409857328,8.73385214007782,9.523735408560311,12.01219195849546,15.133333333333333,13.921400778210117,12.480415045395588,12.443839169909207,12.4420233463035,12.162127107652399,12.01219195849546,13.319844357976654,13.51828793774319,11.803631647211413,9.031387808041504,6.379507133592737,4.734111543450065,5.961867704280155,10.049546044098573,13.169130998702984,12.691050583657589,11.656290531776913,11.525810635538262,12.784176394293127,12.789883268482491,13.027756160830092,13.594811932555125,13.53852140077821,11.98780804150454,9.161348897535667,6.756939040207523,4.50272373540856,2.4798962386511025,1.9128404669260701,2.004928664072633,2.419455252918288
9.6757457846952,9.923994811932555,10.392736705577173,10.946303501945525,12.404409857328144,13.651621271076525,13.459143968871595,12.624124513618678,11.516472114137484,10.089494163424124,8.640726329442282,7.727107652399481,7.12295719844358,6.516990920881972,7.010635538261997,7.355642023346304,7.553047989623865,10.89857328145266,14.69182879377432,14.102204928664074,12.42438391699092,12.131517509727626,12.24124513618677,12.191439688715953,12.035019455252918,13.288197146562906,13.038651102464334,10.125291828793774,7.738780804150454,5.355901426718547,3.8671854734111544,6.4495460440985735,11.257846952010375,13.62153047989624,13.479636835278859,13.01556420233463,13.251361867704281,14.396887159533074,14.553307392996109,14.426459143968872,14.212191958495461,13.702983138780805,11.759014267185472,8.572243839169909,6.54656290531777,4.435538261997406,2.745525291828794,2.0376134889753565,1.9735408560311285,1.9478599221789883
9.667963683527885,9.697276264591439,9.953047989623865,10.958236057068742,13.037613488975358,13.350972762645915,12.273411154345006,11.479377431906615,10.459662775616083,8.944228274967575,7.658625162127108,5.599740596627756,3.9865110246433204,3.7603112840466926,4.768093385214008,4.301426718547341,5.742153047989624,10.251880674448767,13.902204928664073,13.880155642023347,12.305836575875485,11.974837872892348,12.037094682230869,12.01556420233463,12.366018158236056,13.346822308690014,11.131258106355382,7.13307392996109,5.909727626459143,4.749935149156939,3.485603112840467,6.814007782101168,11.309208819714655,14.38443579766537,14.367055771725033,14.489494163424125,14.893644617380026,14.8337224383917,14.5094682230869,14.177431906614787,13.278858625162128,12.892088197146563,11.54396887159533,8.609338521400778,6.284824902723736,4.336964980544747,3.036575875486381,2.2186770428015565,1.9125810635538263,1.9981841763942931
9.736705577172502,9.745006485084305,9.963164721141375,11.869260700389104,13.548119325551234,12.815045395590143,11.287678339818417,10.163683527885862,8.988845654993515,7.685343709468223,6.335927367055772,3.912581063553826,2.5281452658884564,2.501686121919585,2.44124513618677,4.191958495460441,7.04928664072633,10.040985732814526,13.533333333333333,13.274448767833983,12.292347600518806,11.90012970168612,11.895719844357975,11.848508430609597,12.752788586251622,13.053177691309989,9.465629053177691,6.323994811932556,5.215304798962387,3.775356679636835,4.41011673151751,8.511024643320363,11.023865110246433,13.719844357976655,15.561348897535668,15.23242542153048,14.95875486381323,14.446433203631647,13.869779507133593,13.1769130998703,12.189623865110246,11.59118028534371,9.887678339818418,7.147081712062257,5.416342412451361,4.459922178988327,3.8848249027237354,2.8456549935149154,2.211673151750973,1.972762645914397
9.792477302204928,9.876523994811933,10.525551232166018,13.06277561608301,13.557457846952012,11.837094682230868,10.301686121919584,8.644876783398184,6.946562905317769,5.860959792477302,4.529442282749676,3.160311284046693,2.219195849546044,2.0036316472114137,1.9219195849546045,8.30272373540856,9.534370946822309,9.637354085603112,12.75538261997406,12.863553826199741,12.06485084306096,11.677302204928663,11.501426718547341,11.793774319066147,13.429571984435798,9.083009079118028,6.767055771725032,5.22568093385214,4.4718547341115436,3.171465629053178,5.468482490272374,9.51154345006485,11.326070038910505,12.61608300907912,13.814267185473412,14.592736705577172,13.650843060959794,12.584176394293127,12.415564202334629,12.466666666666665,11.180804150453955,9.996368352788586,8.045654993514916,6.069001297016861,5.562905317769131,6.547341115434501,6.008041504539559,4.4798962386511025,3.2625162127107656,2.433203631647211
10.76160830090791,11.327367055771724,12.890012970168613,14.05810635538262,13.377431906614786,11.698313878080414,10.184954604409857,8.367315175097277,6.162127107652399,4.840207522697795,3.6334630350194552,2.4715953307392997,1.7787289234760053,1.842023346303502,1.7380025940337225,4.297795071335927,7.933592736705577,10.750194552529182,12.402594033722437,11.515693904020752,11.078599221789883,11.036316472114137,11.009079118028534,12.161348897535667,10.948897535667964,4.68715953307393,4.874708171206225,3.3935149156939044,4.3421530479896235,3.5932555123216603,6.688456549935149,10.052140077821011,12.671076523994813,13.570946822308692,14.10869001297017,13.747081712062258,11.976134889753567,11.29597924773022,11.30687418936446,12.279896238651101,11.06692607003891,8.684824902723735,6.844098573281453,6.090791180285343,7.387548638132296,9.136964980544747,7.692607003891051,6.142931258106355,5.788845654993515,5.084046692607004
12.146303501945525,12.390402075226977,14.086640726329444,14.663035019455254,13.690531776913101,12.172503242542152,10.685343709468222,9.431647211413749,7.757717250324254,5.505317769130999,3.3763942931258106,2.0036316472114137,1.6088197146562906,1.6552529182879379,2.749675745784695,5.1979247730220495,8.49727626459144,12.232166018158235,12.392217898832683,10.605188067444876,10.12632944228275,10.611932555123216,10.68715953307393,11.339040207522697,9.470817120622568,6.119066147859922,3.6661478599221793,3.463294422827497,4.2282749675745785,5.008300907911803,8.43709468223087,10.476005188067445,13.336964980544748,14.642282749675747,13.317250324254216,12.482230869001295,11.79870298313878,11.672114137483787,11.272632944228274,11.465629053177691,9.705836575875486,7.343968871595331,6.602594033722439,7.629312581063554,10.224902723735408,10.419974059662776,8.917250324254216,8.567833981841764,8.51828793774319,8.313099870298313
12.4757457846952,12.173540856031128,12.768093385214009,14.221789883268483,13.654215304798964,12.559014267185475,11.223605706874189,9.765239948119325,8.396108949416343,5.865888456549935,3.0295719844357976,1.6952010376134892,1.8378728923476007,3.0583657587548636,5.5071335927367056,9.239169909208819,11.273151750972762,11.76083009079118,11.119844357976653,9.791439688715952,9.793514915693903,9.788067444876782,8.166796368352788,7.615304798962387,7.268741893644617,4.9574578469520105,2.65810635538262,4.169909208819714,4.081712062256809,7.091050583657588,10.19870298313878,12.596108949416344,13.164721141374839,14.066407263294423,13.015823605706876,12.569909208819716,12.238391699092087,11.800518806744487,11.456290531776913,10.840207522697794,8.246173800259402,6.860440985732815,7.6272373540856035,10.180285343709468,12.11491569390402,11.748378728923475,11.467185473411154,10.748897535667963,10.789364461738002,9.447730220492867
12.582101167315177,12.761608300907913,13.318287937743191,13.56679636835279,12.933852140077821,11.895460440985731,10.62438391699092,8.77094682230869,7.1273670557717255,5.119584954604409,2.959533073929961,1.632684824902724,1.951491569390402,4.352788586251621,7.832944228274967,12.319066147859921,12.936964980544747,10.353047989623864,8.777431906614787,8.18988326848249,8.392477302204929,7.986251621271077,5.42438391699092,4.038132295719844,3.8617380025940338,2.2412451361867705,2.9084306095979247,5.188586251621271,4.5281452658884564,8.407522697795072,11.854993514915693,14.604150453955901,14.542931258106355,13.934111543450065,13.692347600518808,12.592736705577174,12.312321660181581,12.203631647211413,11.867444876783397,9.776913099870297,7.666666666666667,7.485862516212711,9.047211413748379,11.156939040207522,12.93307392996109,13.460959792477302,13.16679636835279,12.550194552529184,12.697795071335928,10.683527885862516
13.005966277561608,13.05732814526589,13.350453955901427,13.41348897535668,13.142931258106357,12.0757457846952,10.555123216601816,8.997405966277562,7.4062256809338525,5.392217898832684,3.0230869001297016,1.4946822308690013,1.4106355382619973,3.252918287937743,6.934630350194553,11.588845654993515,11.993514915693904,8.549935149156939,6.654474708171207,6.283787289234761,6.431128404669261,6.924773022049287,4.445654993514916,2.1198443579766537,1.6894941634241245,1.5123216601815823,3.5271076523994815,5.355642023346303,6.051621271076524,9.209079118028534,11.929442282749674,12.919844357976654,13.843579766536966,14.231128404669262,14.196627756160831,13.553047989623867,12.822827496757458,12.012970168612192,10.4189364461738,8.802594033722439,8.080933852140078,8.790142671854735,10.188845654993514,11.98313878080415,13.543190661478599,14.186251621271078,14.523735408560311,14.27626459143969,13.604409857328147,12.02023346303502
12.664332036316473,11.263294422827496,11.09805447470817,12.403631647211412,13.13229571984436,12.602075226977952,12.955642023346304,11.338002594033721,8.392217898832685,5.490791180285344,2.970687418936446,1.307911802853437,1.3828793774319066,2.8178988326848247,5.566277561608301,9.715175097276264,10.367315175097277,7.281971465629053,5.089494163424124,4.293125810635538,7.1354085603112845,6.708949416342413,2.935408560311284,1.0381322957198442,0.9841763942931259,1.4731517509727625,3.1880674448767836,6.03579766536965,7.4975356679636835,9.298054474708172,11.559792477302205,12.15953307392996,13.3431906614786,14.348378728923477,14.32295719844358,14.49727626459144,13.807782101167316,12.15745784695201,10.46822308690013,9.233981841763942,9.377172503242543,10.857587548638131,12.215045395590142,13.585214007782103,14.57976653696498,14.746822308690014,14.705317769131,13.770428015564203,12.742931258106356,11.430869001297017
12.497276264591441,10.823865110246432,9.890791180285344,10.536186770428015,11.822827496757457,11.118806744487678,11.370687418936445,10.984176394293126,7.386770428015565,4.660181582360571,2.802853437094682,1.3156939040207523,1.2181582360570686,2.649546044098573,5.097535667963683,9.455512321660182,9.57976653696498,6.4542153047989625,4.381063553826199,3.353307392996109,5.662516212710765,4.817639429312581,1.6975356679636837,0.8575875486381324,1.0132295719844358,2.1730220492866406,5.898832684824902,9.228274967574578,10.53307392996109,11.28041504539559,12.203112840466925,13.750972762645915,14.631128404669262,14.687418936446175,14.65395590142672,14.566536964980545,14.22490272373541,13.523476005188067,12.35278858625162,10.922438391699092,11.643060959792477,13.727107652399482,14.718547341115436,15.382879377431907,15.346303501945526,14.399221789883269,13.656549935149158,12.820752269779508,11.102464332036316,8.984954604409857
12.62697795071336,11.33385214007782,10.113618677042801,9.508430609597925,9.546822308690013,10.353826199740595,9.14941634241245,9.197405966277561,6.61011673151751,4.314137483787289,2.7590142671854734,1.2526588845654993,1.1859922178988327,2.6300907911802853,5.64461738002594,9.630350194552529,9.25136186770428,6.246433203631648,4.238910505836576,2.5727626459143966,2.7408560311284047,2.5281452658884564,1.0357976653696497,0.6643320363164721,1.3431906614785991,3.653437094682231,7.828534370946822,11.190920881971465,13.932555123216602,15.387029831387808,15.327367055771726,15.811932555123217,15.708949416342413,15.04669260700389,14.873411154345007,14.75875486381323,14.278080415045396,13.234760051880675,12.815304798962387,12.42853437094682,13.68508430609598,15.5284046692607,15.647730220492866,15.07704280155642,14.783398184176395,13.360311284046693,11.426718547341116,11.694682230869,9.874708171206226,6.3644617380025945
11.86018158236057,10.062256809338521,8.642801556420233,7.630090791180286,7.112581063553827,8.440726329442283,8.043839169909209,7.750972762645914,7.065369649805448,4.550972762645914,2.5219195849546043,1.1247730220492866,1.074189364461738,2.548119325551232,5.837613488975356,10.050843060959792,9.322178988326849,6.418677042801557,4.07367055771725,2.172503242542153,1.050064850843061,0.7758754863813229,0.7792477302204928,1.1237354085603113,3.3123216601815826,6.473151750972763,9.153566796368352,13.24383916990921,14.344747081712063,14.168612191958497,15.503501945525292,15.869001297016862,15.576913099870298,15.13722438391699,14.798184176394294,14.858625162127108,14.737224383916992,13.718028534370948,13.300389105058366,13.864332036316473,15.23035019455253,16.15201037613489,15.290791180285344,13.919844357976654,13.481193255512322,12.232684824902723,9.915434500648509,8.900907911802854,7.177431906614786,4.688975356679637
11.417120622568092,9.360570687418937,7.657328145265889,5.883268482490272,4.5328145265888455,4.597146562905317,4.970428015564202,4.852140077821011,4.909987029831387,3.7919584954604413,2.3003891050583656,1.103501945525292,0.9509727626459145,2.091828793774319,5.158495460440985,9.513359273670558,8.816083009079119,6.2124513618677035,4.123735408560311,1.8202334630350194,0.5543450064850843,0.7226977950713359,0.9359273670557717,2.98651102464332,5.930739299610894,9.25551232166018,12.115693904020752,13.17898832684825,12.139040207522697,12.157198443579766,14.254734111543451,15.391699092088198,15.151750972762647,14.78910505836576,14.54863813229572,14.46355382619974,14.661738002594035,14.364461738002595,13.580025940337226,13.979247730220493,15.212191958495461,15.392736705577173,14.70869001297017,12.856809338521401,11.338261997405965,10.099870298313878,7.94189364461738,6.144747081712062,4.937743190661479,4.443579766536965
11.430609597924773,9.759792477302204,7.923994811932555,6.172503242542152,4.560311284046692,3.716472114137484,3.243579766536965,2.9992217898832685,2.5839169909208817,2.1761348897535666,1.6246433203631647,0.9631647211413749,0.6679636835278858,1.293385214007782,3.7431906614785992,7.826977950713359,6.988845654993515,5.087937743190661,3.2158236057068743,1.2417639429312581,0.6298313878080415,0.5118028534370946,1.6622568093385215,5.550194552529183,8.336446173800258,11.387029831387807,13.436316472114138,12.319844357976653,12.242023346303501,13.07963683527886,14.529182879377432,14.752269779507134,14.360570687418937,14.327107652399482,14.302204928664073,13.9473411154345,14.265110246433204,14.213748378728924,13.110246433203633,13.210894941634242,14.584954604409857,14.21141374837873,13.809597924773023,11.97094682230869,9.65006485084306,7.638910505836576,5.839429312581063,5.011154345006485,4.676523994811933,5.475486381322957
11.505577172503243,10.250843060959792,9.088197146562905,7.982879377431907,6.402853437094683,4.934111543450065,4.20674448767834,3.4850843060959793,3.2077821011673153,2.993514915693904,1.9738002594033723,1.0067444876783398,0.5966277561608301,0.7086900129701685,1.8625162127107653,5.4352788586251615,5.1387808041504535,2.8308690012970166,1.6158236057068742,0.7849546044098574,0.503242542153048,0.819455252918288,4.5055771725032425,8.490791180285344,10.359273670557716,12.156679636835278,12.429053177691308,12.351232166018157,12.615564202334632,13.343709468223087,13.569390402075229,13.389623865110247,13.70402075226978,14.196887159533075,14.249027237354086,13.179507133592738,12.717250324254216,12.69987029831388,11.869260700389104,12.04461738002594,13.200518806744489,12.792736705577173,11.994293125810636,9.537483787289235,7.183657587548638,5.610376134889753,5.065888456549935,5.067444876783398,5.939818417639429,8.018417639429313
12.087937743190661,11.105317769130998,10.128923476005188,9.046433203631647,7.951491569390402,7.016601815823606,5.732036316472114,5.647470817120622,5.711543450064851,5.340337224383917,3.592477302204929,1.735667963683528,0.7854734111543451,0.4985732814526589,0.7538261997405966,2.6845654993514914,3.5896238651102466,0.9546044098573282,0.495201037613489,0.9195849546044099,1.5507133592736704,3.684306095979248,7.582619974059663,10.582619974059662,12.630609597924774,12.736964980544748,11.51413748378729,11.387029831387807,10.847211413748377,10.389623865110247,10.96757457846952,11.701945525291828,12.262775616083008,12.89857328145266,13.417120622568094,12.097535667963683,10.447211413748379,10.102983138780804,9.914915693904021,9.928923476005188,9.7852140077821,8.779766536964981,7.889234760051881,6.455252918287938,5.5457846952010375,5.200518806744488,5.5922178988326845,6.931258106355383,8.842801556420234,11.119844357976653
12.123476005188067,12.461997405966276,10.969130998702983,9.913878080415046,9.14941634241245,8.640466926070038,8.096238651102464,8.781582360570688,8.92762645914397,7.68715953307393,5.598184176394293,2.839688715953307,1.2313878080415046,0.5488975356679637,0.3979247730220493,1.0881971465629052,1.8778210116731517,0.7115434500648508,0.5252918287937743,1.9709468223086901,4.538780804150454,6.5455252918287945,9.278858625162126,9.737483787289234,9.59325551232166,9.777431906614785,9.758754863813229,9.399481193255513,9.10817120622568,8.728923476005187,9.213488975356679,9.58313878080415,9.992996108949416,10.981322957198444,11.653177691309986,11.48715953307393,9.934370946822309,8.718547341115434,8.354604409857327,7.709208819714656,6.801037613488976,6.261219195849547,5.7571984435797665,5.592996108949416,5.676264591439688,6.370428015564203,8.32373540856031,10.028015564202335,11.697276264591439,13.447211413748379
10.889494163424123,12.355642023346302,11.90012970168612,11.266666666666666,10.37898832684825,10.315434500648507,11.415304798962385,11.26355382619974,10.006485084306096,8.408560311284047,5.9512321660181575,3.3831387808041504,1.7989623865110247,0.7821011673151752,0.46303501945525294,0.456549935149157,0.6526588845654994,0.6018158236057068,1.0197146562905317,3.330739299610895,6.0184176394293125,8.216601815823605,8.525810635538262,6.07704280155642,5.049027237354085,5.15071335927367,6.2300907911802845,7.920881971465629,9.696498054474707,9.809857328145265,9.621530479896238,9.50402075226978,9.701945525291828,10.82983138780804,11.969909208819715,12.50324254215305,11.686640726329442,11.13177691309987,9.446952010376135,7.499610894941634,6.633463035019456,6.436835278858625,6.634241245136187,6.939559014267186,7.4752269779507134,9.025421530479896,10.342153047989623,11.284046692607003,12.08923476005188,13.90272373540856
7.452140077821012,9.115953307392996,12.203631647211413,12.963942931258106,12.701426718547342,11.317769130998702,10.574578469520103,10.115175097276264,8.60881971465629,7.126070038910506,5.4752269779507134,3.735408560311284,2.554604409857328,1.093385214007782,0.43683527885862516,0.4980544747081712,0.48638132295719844,0.6002594033722438,2.506614785992218,5.448767833981842,7.417639429312581,8.387029831387808,5.70817120622568,3.471076523994812,3.86147859922179,4.838651102464332,6.546303501945526,9.091309987029831,11.265888456549934,12.064072632944228,11.773800259403371,11.207782101167314,11.903242542153047,12.339040207522697,12.843060959792478,13.673670557717251,13.210635538261998,12.484565499351493,10.894682230869002,7.954863813229572,6.621530479896239,7.522178988326848,10.08041504539559,11.220752269779506,11.167055771725032,11.493125810635538,11.721919584954604,11.58988326848249,11.213488975356679,13.679377431906616
4.121919584954604,6.2697795071335936,9.605706874189364,11.543450064850843,12.521919584954606,11.505577172503243,9.952788586251621,8.70817120622568,7.45473411154345,6.392477302204929,5.534630350194552,5.0985732814526585,4.232944228274968,1.8137483787289235,0.4267185473411155,0.4946822308690013,0.36887159533073927,1.8070038910505837,5.030090791180285,6.2747081712062265,6.195071335927366,5.724513618677043,3.525032425421531,3.1691309987029834,6.266407263294424,9.40466926070039,10.568612191958495,11.042023346303502,12.210376134889753,13.204928664072634,12.671335927367057,12.794293125810636,13.485603112840467,13.412451361867705,13.323994811932556,13.104020752269781,11.556679636835279,11.008041504539559,9.808041504539558,7.425162127107653,7.101167315175098,8.57769130998703,11.4041504539559,12.983657587548638,13.6337224383917,13.530998702983139,13.2337224383917,13.114396887159534,12.557198443579768,14.877302204928665
3.843579766536965,4.410894941634242,6.7826199740596635,9.276523994811932,11.546822308690013,11.704020752269779,10.426459143968872,9.585473411154345,9.094163424124513,8.02905317769131,6.495201037613489,4.573540856031128,3.0119325551232166,1.4830090791180284,0.44980544747081713,0.4544747081712062,0.49623865110246435,2.078599221789883,3.6814526588845657,3.671076523994812,3.2871595330739303,2.9265888456549933,2.943190661478599,4.139559014267185,8.380285343709469,11.945525291828792,12.582101167315177,12.957976653696498,13.591439688715955,13.870817120622569,13.73981841763943,13.79247730220493,14.26147859922179,13.783398184176395,12.484306095979246,11.172503242542152,9.72710765239948,9.265369649805447,8.588845654993515,7.527107652399481,7.859922178988327,9.545006485084306,11.658365758754863,12.705058365758756,13.906355382619974,14.330739299610896,14.057846952010376,14.088197146562907,14.104539559014269,14.955123216601816
4.557976653696498,3.8111543450064853,5.260181582360571,7.628274967574579,10.019714656290532,12.286900129701685,12.033722438391699,11.968093385214008,10.506874189364462,7.773800259403372,5.51621271076524,3.1688715953307396,1.536964980544747,0.6002594033722438,0.44254215304798966,0.4477302204928664,0.624124513618677,1.3800259403372244,1.987029831387808,2.3268482490272375,2.567055771725032,3.0363164721141374,3.764461738002594,5.294682230869001,8.167055771725032,10.378469520103762,10.932295719844358,11.533592736705577,12.116990920881971,13.028534370946824,14.008041504539559,14.424902723735409,14.566018158236057,13.872114137483788,11.822827496757457,10.214526588845654,9.390920881971466,9.284824902723734,9.11491569390402,8.816342412451363,8.977950713359274,10.730739299610894,12.387548638132294,13.309727626459145,14.36005188067445,15.245395590142673,14.696757457846953,13.96083009079118,14.339040207522698,15.150453955901428
4.064332036316472,2.5084306095979247,3.387548638132296,5.491050583657588,7.41686121919585,10.058625162127107,10.903501945525292,11.577950713359273,10.443839169909209,7.903501945525292,5.478599221789883,3.0998702983138777,1.106614785992218,0.43398184176394294,0.5105058365758754,0.48378728923476005,1.5237354085603112,2.8591439688715954,2.6952010376134887,3.049805447470817,3.285862516212711,4.101426718547341,5.3149156939040205,6.103242542153048,7.176653696498055,8.621789883268482,9.588067444876783,9.724513618677042,10.479118028534371,12.09260700389105,13.934111543450065,14.814007782101168,14.757198443579767,14.156160830090792,12.829312581063554,11.60337224383917,11.764461738002593,12.711284046692608,11.988586251621271,10.751232166018157,10.60337224383917,11.415304798962385,11.750194552529182,12.432425421530478,14.170687418936447,15.645395590142671,14.782619974059664,13.24591439688716,13.307133592736706,14.749675745784696
4.591180285343709,2.0747081712062254,2.683268482490272,2.99662775616083,5.238651102464332,7.217898832684825,8.714656290531776,9.469001297016861,9.47029831387808,7.873151750972763,5.221530479896239,2.8954604409857327,1.064591439688716,0.804928664072633,0.6464332036316471,0.7958495460440986,3.5893644617380027,5.163164721141374,4.339559014267185,4.575875486381323,5.2428015564202335,5.713359273670558,7.128664072632945,9.084306095979247,8.505836575875486,8.155382619974059,8.90272373540856,9.755901426718546,11.631647211413748,13.579766536964982,14.923994811932555,15.176394293125812,14.951491569390402,14.399740596627757,13.72632944228275,13.56472114137484,14.049027237354085,14.578469520103761,13.705577172503244,11.727885862516212,10.741634241245135,11.001556420233463,11.12166018158236,11.418158236057067,13.413748378728924,14.633981841763944,14.113359273670559,12.997146562905318,12.0757457846952,13.287678339818418
6.141374837872892,3.102983138780804,2.588326848249027,1.4251621271076522,2.4469520103761346,4.900129701686121,6.317769130998704,6.820492866407264,7.457068741893645,6.619455252918288,4.872114137483787,2.463035019455253,0.6866407263294423,1.461219195849546,0.8990920881971466,1.5071335927367056,5.433722438391698,7.391439688715954,6.819455252918289,6.337743190661479,7.161608300907912,8.32373540856031,7.819455252918288,9.980285343709468,10.937224383916991,9.68041504539559,9.088975356679637,10.136186770428015,12.296238651102463,14.186511024643321,15.146303501945527,15.244357976653697,15.064072632944228,14.806225680933853,14.306355382619975,14.055512321660181,14.595849546044098,14.82568093385214,14.397665369649806,13.203372243839171,12.072892347600519,12.107911802853437,11.748638132295719,12.093125810635538,13.902983138780804,13.90402075226978,12.074708171206225,10.96757457846952,10.693125810635538,12.011673151750973
6.7058365758754865,4.942412451361868,3.2760051880674452,1.5232166018158235,1.4070038910505835,2.0964980544747083,3.3898832684824907,4.122178988326848,4.379247730220492,4.483268482490272,3.6612191958495464,1.7138780804150455,0.5424124513618677,1.230609597924773,0.6472114137483787,1.8251621271076524,5.952010376134889,9.503761348897536,8.780025940337225,7.206485084306096,7.642801556420234,9.804928664072632,10.402594033722439,10.27444876783398,11.915434500648507,11.278858625162126,10.81971465629053,11.416601815823604,12.820752269779508,14.325810635538263,14.884565499351492,14.687159533073931,14.716990920881972,14.89390402075227,14.758236057068743,14.22023346303502,14.321400778210117,14.524513618677043,14.534630350194552,13.480674448767834,12.403112840466925,12.465369649805446,12.540077821011675,14.04461738002594,14.522178988326848,13.364461738002595,11.199221789883268,9.753047989623864,10.403891050583658,12.288715953307392
7.676005188067445,6.523476005188068,5.067963683527886,3.1613488975356683,1.8282749675745786,1.1501945525291828,1.361348897535668,1.4791180285343708,1.4038910505836575,1.5587548638132294,1.3872892347600518,0.8280155642023347,0.9125810635538262,0.9504539559014268,0.5530479896238651,2.0697795071335925,5.845136186770428,9.27029831387808,9.155901426718547,7.456031128404669,7.921660181582361,9.744487678339818,12.400259403372242,13.36757457846952,13.414526588845655,12.808819714656291,12.658884565499353,12.822827496757458,13.478080415045396,13.54785992217899,13.562645914396889,13.170946822308691,13.91621271076524,14.737483787289236,14.091569390402077,13.738002594033723,14.081452658884567,13.884824902723736,13.443320363164721,12.274708171206225,11.921919584954603,11.980544747081712,12.306614785992217,14.48171206225681,14.528145265888456,12.582619974059664,10.442801556420234,9.577950713359273,10.75616083009079,13.419714656290532
8.914396887159533,7.357457846952011,5.728664072632944,4.706355382619974,3.532555123216602,2.0809338521400775,1.277302204928664,0.8632944228274968,0.6666666666666666,0.4894941634241245,0.3530479896238651,0.4111543450064851,1.3424124513618676,1.056549935149157,0.7335927367055771,2.564461738002594,6.022827496757458,8.48378728923476,7.908690012970169,7.465369649805448,8.498832684824903,9.791439688715952,12.184954604409857,14.48041504539559,13.783138780804151,13.4715953307393,13.763164721141376,14.254474708171207,13.844617380025941,11.893644617380025,11.120881971465629,11.74396887159533,13.671335927367057,14.067704280155642,12.310505836575874,13.219195849546045,13.673929961089495,12.56887159533074,12.214007782101167,12.195849546044098,12.017380025940337,12.034760051880674,12.424902723735407,13.701167315175098,13.775356679636836,13.1769130998703,10.626199740596627,9.250843060959792,10.861997405966276,12.960051880674449
9.370687418936447,7.813748378728923,6.737224383916991,6.664591439688716,5.1833981841763945,4.137743190661478,2.99325551232166,2.4861219195849547,2.101426718547341,1.814526588845655,1.2477302204928664,0.3278858625162127,1.3665369649805448,1.4798962386511023,0.7045395590142671,3.2677042801556424,7.205706874189365,8.384954604409858,7.000518806744488,7.3789883268482495,9.270817120622567,11.169909208819714,12.761608300907913,14.08845654993515,12.726848249027238,12.191699092088196,12.423865110246432,13.589623865110248,13.671335927367057,11.177172503242542,8.99455252918288,10.126070038910505,12.954345006485084,13.267185473411155,11.740856031128404,12.502723735408562,13.427496757457847,12.259662775616082,11.897535667963682,12.070038910505836,12.029312581063554,11.960570687418937,12.567574578469522,12.727367055771726,12.514137483787291,12.837613488975357,11.327367055771724,9.280155642023345,11.138780804150453,11.8041504539559
9.987289234760052,8.605188067444876,8.199221789883268,7.849027237354086,6.7507133592736706,6.212710765239947,6.478858625162127,6.203891050583657,5.743450064850843,4.668741893644618,2.76420233463035,0.5922178988326848,0.9496757457846953,1.519325551232166,1.2941634241245135,4.807263294422827,8.244357976653696,8.303761348897535,6.965239948119326,7.4495460440985735,9.129182879377431,12.08715953307393,14.001037613488975,13.103761348897537,11.666666666666666,10.904798962386511,11.473151750972763,12.919844357976654,13.79662775616083,12.143709468223086,9.57094682230869,8.743450064850842,11.066666666666666,12.45551232166018,10.472892347600519,10.715693904020752,12.564461738002596,12.22568093385214,11.5284046692607,12.033722438391699,12.901426718547341,12.934370946822309,13.983657587548638,13.734111543450066,12.432944228274966,10.692088197146562,9.79325551232166,9.73852140077821,11.964721141374838,11.871854734111542
10.809857328145265,9.743450064850842,9.184954604409857,8.569390402075227,8.87833981841764,8.874189364461738,8.360830090791179,7.1097276264591445,6.2697795071335936,5.711284046692607,3.389623865110247,0.816342412451362,0.842023346303502,1.091828793774319,1.6931258106355382,5.736705577172503,8.73722438391699,8.284306095979247,6.940077821011673,7.360570687418937,9.211413748378728,11.699610894941634,12.376134889753565,11.43242542153048,10.562645914396887,9.66485084306096,10.224643320363164,12.858365758754864,14.193514915693905,13.149675745784696,11.594293125810635,9.141374837872892,9.708690012970168,12.216601815823605,10.677821011673151,9.423346303501946,10.400518806744488,11.187289234760051,11.57302204928664,12.663553826199742,13.197146562905319,14.161089494163425,14.688197146562906,13.755642023346304,12.637354085603114,10.009597924773022,9.399740596627757,10.719844357976653,13.112840466926071,12.785992217898833
11.56420233463035,10.742153047989623,10.247211413748378,10.345265888456549,10.285084306095978,9.003112840466926,7.208300907911803,5.700129701686121,4.716472114137484,4.4959792477302205,3.2645914396887163,0.9452658884565499,1.1457846952010375,1.075745784695201,1.966277561608301,5.903761348897535,8.192217898832684,6.905577172503243,6.213748378728923,6.821789883268483,8.037613488975357,9.074448767833982,9.684824902723735,9.729701686121919,8.973281452658885,8.939040207522698,9.92632944228275,12.06822308690013,13.373281452658885,12.6147859922179,11.099870298313878,8.333073929961088,8.813229571984436,12.03242542153048,12.41634241245136,10.732814526588845,9.647211413748378,10.024643320363165,11.580804150453956,13.030090791180287,13.967833981841764,14.636835278858626,14.022049286640726,12.734111543450066,11.516990920881971,9.572503242542153,10.096757457846952,11.841504539559013,13.717769130998704,13.566277561608302
12.227237354085602,11.415304798962385,11.62775616083009,10.58858625162127,8.701686121919584,7.323216601815824,6.778469520103762,6.934111543450065,6.023346303501945,3.8236057068741895,2.154604409857328,0.9937743190661479,1.0394293125810634,0.6780804150453955,2.6461738002594033,6.0007782101167315,5.916472114137483,4.995590142671855,4.8695201037613485,5.488197146562905,6.243320363164722,6.814267185473412,7.582619974059663,8.427756160830091,8.842282749675746,9.745006485084305,11.51413748378729,12.218417639429312,12.853696498054475,11.961867704280156,9.302204928664073,7.316990920881972,8.17431906614786,11.306614785992217,13.228015564202336,11.817898832684824,10.266147859922178,9.686381322957198,11.146822308690012,13.523994811932555,14.43450064850843,14.719325551232167,13.959533073929961,12.372762645914396,10.326848249027236,8.700648508430609,9.241763942931257,10.705058365758754,12.641245136186772,13.300389105058366
11.721919584954604,10.48508430609598,9.84928664072633,8.339559014267184,7.23916990920882,7.59118028534371,8.96757457846952,8.752529182879377,6.6609597924773025,3.816342412451362,1.3906614785992217,0.7774319066147859,1.4345006485084306,1.0814526588845654,2.536964980544747,4.378728923476005,4.074708171206225,4.2010376134889755,5.061997405966277,6.209079118028534,7.098054474708172,7.608560311284047,7.726070038910506,7.780285343709468,9.719844357976653,11.744747081712061,12.886381322957199,12.875745784695201,12.418158236057067,11.988845654993515,9.421789883268483,7.2861219195849545,7.832944228274967,10.212710765239947,12.253696498054474,11.081193255512321,9.058884565499351,8.647211413748378,10.851102464332035,13.636575875486383,14.001037613488975,14.111284046692608,14.035019455252918,12.250843060959792,9.621271076523994,8.237094682230868,8.180025940337224,9.12632944228275,11.547859922178988,12.088975356679637
11.259403372243838,9.729442282749675,8.334889753566795,7.681452658884566,8.506614785992218,10.277561608300907,10.213229571984435,8.738002594033722,6.325291828793775,2.988586251621271,0.9509727626459145,0.8121919584954604,1.6321660181582363,1.2228274967574577,1.7102464332036318,2.675486381322957,3.227237354085603,4.273411154345006,5.81219195849546,7.516472114137484,9.45603112840467,10.09935149156939,10.270557717250323,9.28249027237354,10.110246433203631,12.299610894941633,13.818677042801557,12.584954604409859,11.247470817120622,10.69597924773022,9.698832684824902,7.223086900129702,7.094422827496758,8.890272373540856,10.760051880674448,9.793514915693903,7.427237354085603,8.183398184176394,11.222568093385213,12.610635538261999,12.731258106355384,13.455771725032426,13.403112840466926,11.710765239948119,10.028274967574578,8.340856031128403,7.9976653696498055,8.864591439688716,10.97976653696498,11.762127107652399
11.5473411154345,10.618417639429312,9.845654993514916,9.59118028534371,11.17976653696498,11.280933852140077,9.184435797665369,7.0599221789883275,5.0601815823605705,2.293125810635538,0.7141374837872893,0.4054474708171206,0.8700389105058366,0.7667963683527885,1.7634241245136189,2.716990920881971,3.899610894941634,5.6259403372243835,7.174059662775616,9.136964980544747,11.859922178988326,12.96420233463035,12.327367055771724,10.980804150453956,11.096757457846952,12.577172503242544,13.60129701686122,11.919844357976652,10.418677042801557,9.271335927367055,8.727885862516212,7.202334630350195,6.328145265888457,7.031387808041504,9.022049286640726,8.635538261997405,6.57224383916991,9.16290531776913,11.329701686121918,11.572243839169909,13.054215304798964,14.272373540856032,13.602853437094684,12.745006485084307,11.040726329442283,8.567055771725032,7.951491569390402,8.906614785992218,10.356679636835278,10.452399481193256
12.535408560311286,12.019455252918288,11.273411154345006,11.520622568093385,11.887418936446172,10.204928664072632,8.42360570687419,6.181582360570687,3.9514915693904022,1.5901426718547342,0.8635538261997406,0.9909208819714657,0.5247730220492867,1.3413748378728922,3.684565499351492,4.686381322957199,4.795071335927367,7.1929961089494165,9.134889753566796,10.811154345006484,12.660959792477303,13.660181582360572,13.48715953307393,12.36835278858625,12.579247730220494,13.995330739299611,12.677302204928665,11.153307392996108,9.41141374837873,8.271076523994811,7.93852140077821,7.465369649805448,6.586251621271077,5.8469520103761345,6.512581063553827,6.9543450064850845,6.135927367055771,8.525551232166018,10.879896238651101,12.29260700389105,13.105577172503244,14.241245136186771,14.872632944228275,13.681971465629054,11.715434500648508,9.289753566796367,7.780544747081712,7.849027237354086,7.733333333333333,7.495201037613489
12.241763942931257,13.164980544747083,12.232944228274967,11.528923476005188,11.04798962386511,10.421011673151751,8.007263294422827,5.299610894941634,3.0249027237354085,0.8116731517509728,1.4656290531776912,1.2796368352788585,0.8015564202334631,2.14526588845655,5.565499351491569,6.7094682230869,5.686381322957198,7.002853437094682,8.57094682230869,9.754604409857327,10.890531776913098,12.319066147859921,14.122957198443581,14.342153047989624,14.354345006485085,14.816342412451363,13.264332036316473,11.792217898832684,10.417898832684825,9.494941634241245,9.602334630350194,8.950194552529183,7.567315175097276,6.517250324254216,5.520881971465629,5.108949416342412,5.293644617380026,7.4495460440985735,10.349156939040206,11.466666666666667,12.61608300907912,14.370168612191959,15.118806744487678,14.249805447470818,12.539559014267187,10.198443579766536,8.025940337224384,7.216342412451362,6.828793774319067,6.649027237354086
10.257328145265888,12.309208819714655,11.438651102464332,10.263813229571983,9.678858625162126,9.296238651102463,7.412191958495461,4.843579766536965,2.5652399481193253,0.843579766536965,1.6573281452658886,0.7372243839169909,0.6762645914396886,2.017898832684825,5.817380025940337,8.120622568093385,6.906355382619974,6.3740596627756165,8.28923476005188,9.261738002594033,9.831128404669261,11.191699092088196,13.334889753566797,15.002853437094682,15.289234760051881,14.82568093385214,14.376913099870299,13.780804150453957,12.58702983138781,12.451102464332035,12.108949416342412,10.093125810635538,8.951232166018158,8.035538261997406,6.3740596627756165,4.742153047989624,4.7234760051880675,6.403891050583658,9.388067444876784,11.507133592736706,12.74863813229572,14.216342412451363,15.004669260700389,14.652918287937744,12.888715953307393,10.976913099870298,9.16757457846952,8.016601815823606,7.485862516212711,7.443839169909209
7.653955901426719,10.53177691309987,11.127885862516212,9.796368352788585,8.879636835278859,7.830090791180285,6.458365758754864,4.5473411154345005,2.030609597924773,0.9022049286640726,1.3802853437094682,0.6702983138780804,0.6879377431906615,2.3875486381322957,6.301426718547342,8.540856031128405,8.423346303501946,6.714137483787289,8.087937743190661,10.417120622568094,11.92581063553826,13.050843060959794,14.35330739299611,14.970168612191959,14.944747081712062,14.27496757457847,12.985214007782101,12.396627756160829,12.241504539559013,12.783138780804151,12.690272373540857,11.54396887159533,10.649805447470817,10.07496757457847,8.25343709468223,5.282230869001297,4.350972762645914,5.6189364461738,8.405706874189365,11.614526588845655,13.544487678339818,14.486121919584955,14.712321660181583,14.387289234760052,13.439688715953308,12.366536964980543,11.276005188067444,9.928664072632944,9.235797665369649,9.396368352788587
6.288715953307394,9.444357976653697,11.783916990920881,11.163424124513618,9.971465629053178,8.728923476005187,7.294682230869001,4.929182879377432,1.8881971465629053,0.7712062256809338,1.5123216601815823,0.8300907911802854,0.9172503242542154,3.0233463035019454,5.805706874189364,7.652399481193256,9.723216601815823,8.730220492866406,7.474708171206226,8.748638132295719,11.49260700389105,13.46018158236057,14.028015564202335,14.472632944228275,14.700389105058367,13.685862516212712,11.760311284046692,10.773800259403371,10.162645914396887,9.874708171206226,10.738002594033722,11.701686121919584,12.076523994811932,11.901167315175096,9.244357976653696,5.430090791180285,4.29390402075227,5.160570687418936,7.45473411154345,11.042801556420233,13.387029831387808,13.889494163424125,14.118547341115436,13.990402075226978,13.475745784695201,12.630090791180287,12.267963683527885,11.918028534370945,11.280155642023345,11.28793774319066