1.362905317769131,1.351232166018158,1.3616083009079119,1.3265888456549935,1.3940337224383916,1.5315175097276263,1.6202334630350195,1.6957198443579768,1.749935149156939,1.6448767833981843,1.6586251621271078,1.7390402075226978,1.6900129701686122,1.6181582360570688,1.57769130998703,1.5265888456549934,1.525551232166018,1.4988326848249027,1.423865110246433,1.4342412451361868,1.399740596627756,1.3797665369649805,1.4108949416342411,1.4604409857328144,1.5330739299610894,1.5154345006485084,1.566536964980545,1.5667963683527888,1.6142671854734112,1.666147859922179,1.7309987029831388,1.8036316472114138,1.7309987029831388,1.6604409857328146,1.646952010376135,1.590402075226978,1.5361867704280154,1.4778210116731516,1.4350194552529183,1.4044098573281452,1.383657587548638,1.3559014267185472,1.3309987029831387,1.2936446173800258,1.298313878080415,1.348119325551232,1.3665369649805448,1.3346303501945525,1.3636835278858626,1.3271076523994811
1.5787289234760054,1.5387808041504538,1.5094682230869,1.5408560311284045,1.7465629053177691,1.7797665369649807,1.8658884565499352,1.933852140077821,1.9509727626459143,1.9325551232166018,1.9203631647211414,1.8383916990920883,1.8025940337224384,1.759533073929961,1.7252918287937744,1.725810635538262,1.6778210116731518,1.5976653696498055,1.576134889753567,1.6023346303501946,1.6228274967574579,1.5629053177691312,1.57769130998703,1.6640726329442284,1.721141374837873,1.7660181582360572,1.809857328145266,1.7380025940337225,1.870817120622568,1.8643320363164722,1.8264591439688718,1.8568093385214008,1.8184176394293126,1.7608300907911805,1.7538261997405966,1.7011673151750974,1.6451361867704282,1.5473411154345005,1.5242542153047989,1.5138780804150453,1.4697795071335926,1.417639429312581,1.3688715953307393,1.3636835278858626,1.37431906614786,1.4018158236057068,1.3945525291828793,1.4365758754863813,1.4775616083009078,1.4295719844357977
1.7481193255512322,1.8274967574578471,1.7014267185473413,1.7636835278858627,1.9629053177691311,2.0357976653696497,2.2111543450064852,2.0902723735408557,2.0573281452658883,2.1413748378728923,2.1156939040207523,2.027496757457847,1.9797665369649806,1.91958495460441,1.9278858625162127,1.8944228274967576,1.793774319066148,1.743709468223087,1.711543450064851,1.7491569390402075,1.8199740596627756,1.8093385214007782,1.88715953307393,1.856549935149157,1.891828793774319,1.9063553826199742,1.943450064850843,1.9738002594033723,2.088456549935149,2.0412451361867703,1.9784695201037614,1.946562905317769,1.8962386511024645,1.8625162127107653,1.8347600518806746,1.7597924773022051,1.7037613488975358,1.6459143968871597,1.6552529182879379,1.6090791180285344,1.53852140077821,1.4822308690012969,1.4752269779507132,1.4801556420233462,1.4391699092088197,1.4479896238651102,1.4521400778210116,1.5022049286640726,1.548119325551232,1.4863813229571983
1.8931258106355384,1.9766536964980546,1.8627756160830091,1.8972762645914398,2.0308690012970168,2.2505836575875486,2.493644617380026,2.2682230869001296,2.203631647211414,2.275486381322957,2.289753566796368,2.230609597924773,2.137224383916991,2.0977950713359275,2.118028534370947,2.08041504539559,1.9813229571984436,1.9159533073929962,1.8684824902723736,1.9252918287937744,1.9862516212710766,2.0313878080415044,2.0438391699092087,1.979247730220493,2.035019455252918,2.035278858625162,2.1232166018158236,2.1520103761348897,2.1826199740596626,2.1782101167315173,2.1250324254215305,2.071854734111543,2.040207522697795,1.9447470817120622,1.891828793774319,1.824124513618677,1.7795071335927368,1.7642023346303504,1.7232166018158237,1.6690012970168613,1.617898832684825,1.5862516212710767,1.5870298313878082,1.5704280155642025,1.5457846952010375,1.5374837872892346,1.517769130998703,1.5276264591439688,1.535408560311284,1.485343709468223
2.0007782101167315,2.1766536964980543,2.1045395590142673,2.091309987029831,2.2075226977950715,2.4246433203631645,2.5234760051880674,2.557976653696498,2.540077821011673,2.6446173800259403,2.660959792477302,2.3955901426718547,2.3719844357976654,2.3431906614785993,2.332814526588846,2.259403372243839,2.1380025940337224,2.1156939040207523,2.0993514915693905,2.1234760051880675,2.1717250324254214,2.1395590142671854,2.18651102464332,2.1312581063553826,2.205188067444877,2.240466926070039,2.250064850843061,2.2780804150453955,2.312581063553826,2.318806744487678,2.2632944228274967,2.2217898832684826,2.2007782101167317,2.0811932555123214,1.9761348897535669,1.9040207522697796,1.8705577172503243,1.8448767833981843,1.8085603112840467,1.766536964980545,1.7055771725032427,1.6754863813229572,1.6552529182879379,1.6949416342412453,1.7053177691309989,1.616083009079118,1.5802853437094684,1.6075226977950714,1.548119325551232,1.4941634241245136
2.0778210116731515,2.3120622568093383,2.302983138780804,2.2619974059662775,2.3665369649805448,2.62230869001297,2.8946822308690012,2.885084306095979,2.824124513618677,2.8894941634241245,2.7699092088197146,2.652918287937743,2.7299610894941635,2.691309987029831,2.63242542153048,2.4656290531776914,2.3068741893644615,2.3286640726329444,2.340596627756161,2.3540856031128405,2.340856031128405,2.2539559014267185,2.3315175097276266,2.334111543450065,2.3961089494163423,2.423605706874189,2.4490272373540853,2.4181582360570686,2.4651102464332038,2.4721141374837874,2.3844357976653696,2.3815823605706874,2.335667963683528,2.2311284046692608,2.136964980544747,2.0394293125810634,1.977431906614786,1.9343709468223087,1.928923476005188,1.900129701686122,1.854993514915694,1.8038910505836576,1.7740596627756162,1.7795071335927368,1.7237354085603114,1.663035019455253,1.6461738002594035,1.6376134889753569,1.5924773022049288,1.548119325551232
2.051621271076524,2.301167315175097,2.44461738002594,2.4830090791180286,2.5797665369649803,2.782101167315175,2.936705577172503,3.0472114137483786,3.184176394293126,3.15538261997406,2.9667963683527883,2.9828793774319062,3.001556420233463,2.9597924773022046,2.8329442282749673,2.7255512321660182,2.606485084306096,2.5854734111543447,2.6184176394293126,2.580285343709468,2.545006485084306,2.501426718547341,2.5408560311284045,2.586251621271076,2.6199740596627756,2.633722438391699,2.6959792477302202,2.5974059662775617,2.591958495460441,2.583398184176394,2.530479896238651,2.5009079118028534,2.498313878080415,2.3784695201037613,2.3001297016861217,2.251621271076524,2.136705577172503,2.0573281452658883,2.0428015564202333,1.9867704280155642,1.9390402075226978,1.890272373540856,1.882230869001297,1.8448767833981843,1.748378728923476,1.7058365758754865,1.6946822308690015,1.6568093385214009,1.6116731517509728,1.549675745784695
2.1380025940337224,2.3146562905317767,2.582101167315175,2.7312581063553827,2.7761348897535667,2.910765239948119,3.075486381322957,3.2303501945525293,3.411932555123217,3.5320363164721145,3.372762645914397,3.3797665369649805,3.367833981841764,3.170168612191959,3.134370946822309,3.056031128404669,2.976653696498054,2.9361867704280153,2.9961089494163424,2.8762645914396887,2.84124513618677,2.839948119325551,2.7735408560311283,2.8308690012970166,2.8306095979247727,2.828274967574578,2.8796368352788586,2.804669260700389,2.788586251621271,2.7364461738002595,2.6824902723735407,2.6796368352788584,2.6446173800259403,2.5164721141374837,2.4817120622568094,2.3571984435797666,2.2184176394293127,2.1667963683527884,2.148378728923476,2.089753566796368,2.0153047989623865,1.9893644617380026,1.9457846952010376,1.8967574578469522,1.817639429312581,1.8044098573281453,1.77431906614786,1.6843060959792477,1.640726329442283,1.6059662775616084
2.2957198443579765,2.494941634241245,2.804409857328145,2.9963683527885863,3.052918287937743,3.161608300907912,3.3089494163424127,3.4578469520103763,3.5828793774319068,3.742153047989624,3.803891050583658,3.6933852140077823,3.682490272373541,3.534370946822309,3.537743190661479,3.52295719844358,3.348378728923476,3.297535667963684,3.383916990920882,3.282490272373541,3.2199740596627757,3.1673151750972766,3.158236057068742,3.1452658884565503,3.104020752269779,3.0282749675745784,3.0765239948119323,3.027496757457847,3.0119325551232166,2.9756160830090788,2.9201037613488974,2.8785992217898833,2.791699092088197,2.74189364461738,2.5916990920881973,2.4,2.3115434500648506,2.277561608300908,2.256549935149157,2.1942931258106357,2.1219195849546044,2.0827496757457844,1.99662775616083,1.9496757457846952,1.9156939040207523,1.888456549935149,1.788845654993515,1.6721141374837873,1.627756160830091,1.5940337224383918
2.4897535667963684,2.724513618677043,3.0246433203631646,3.2661478599221794,3.377172503242542,3.4482490272373543,3.66822308690013,3.859922178988327,3.9299610894941637,4.0088197146562905,4.094163424124513,4.110765239948119,3.998702983138781,4.0378728923476,4.014267185473411,3.972503242542153,3.700389105058366,3.5725032425421532,3.6975356679636837,3.7776913099870297,3.6121919584954605,3.5387808041504543,3.5195849546044102,3.4990920881971466,3.418417639429313,3.2741893644617384,3.340596627756161,3.3507133592736706,3.360051880674449,3.284306095979248,3.155123216601816,3.0581063553826198,3.05136186770428,2.9234760051880673,2.718806744487678,2.5566796368352787,2.4594033722438393,2.427237354085603,2.3779507133592737,2.303242542153048,2.219455252918288,2.16083009079118,2.062256809338521,2.0044098573281453,1.9629053177691311,1.867704280155642,1.7657587548638134,1.6811932555123217,1.6977950713359276,1.6381322957198445
2.612710765239948,2.8199740596627754,3.1579766536964984,3.317769130998703,3.517769130998703,3.698573281452659,3.9657587548638134,4.1579766536964975,4.267444876783398,4.3421530479896235,4.523994811932555,4.683268482490273,4.578728923476005,4.573281452658884,4.419455252918288,4.23579766536965,3.995330739299611,3.9667963683527887,4.0521400778210115,4.20337224383917,4.125291828793774,4.009857328145266,3.907911802853437,3.821011673151751,3.7377431906614786,3.650064850843061,3.6311284046692607,3.746562905317769,3.767315175097276,3.666926070038911,3.524773022049287,3.4287937743190664,3.3561608300907912,3.15875486381323,3.0308690012970168,2.8531776913099867,2.7346303501945526,2.6523994811932554,2.540077821011673,2.463035019455253,2.3097276264591438,2.1670557717250323,2.117509727626459,2.0295719844357976,1.9553826199740596,1.8765239948119325,1.788845654993515,1.7701686121919586,1.7800259403372245,1.7138780804150455
2.682230869001297,3.0293125810635537,3.29390402075227,3.324773022049287,3.5164721141374837,3.7587548638132295,4.155382619974059,4.465110246433204,4.51284046692607,4.596887159533074,4.872114137483787,5.123735408560311,5.138261997405966,5.027237354085603,4.896498054474708,4.6785992217898835,4.472373540856031,4.488975356679637,4.596887159533074,4.599221789883268,4.577950713359273,4.400518806744488,4.2635538261997405,4.149675745784695,4.079896238651102,4.110246433203631,4.015045395590143,4.084565499351491,4.100129701686122,4.05810635538262,3.9302204928664075,3.9006485084306095,3.573022049286641,3.4207522697795074,3.2980544747081715,3.0967574578469517,2.9634241245136184,2.849546044098573,2.700907911802853,2.5743190661478597,2.388326848249027,2.245136186770428,2.1457846952010375,2.075226977950713,2.006485084306096,1.886900129701686,1.8386511024643322,1.8399481193255514,1.861219195849546,1.8560311284046693
2.7512321660181582,3.1494163424124517,3.3027237354085606,3.46822308690013,3.6814526588845657,3.80674448767834,4.06355382619974,4.57431906614786,4.837094682230869,4.905317769130998,5.044876783398184,5.328664072632944,5.496498054474708,5.434760051880674,5.33514915693904,5.191699092088197,5.039688715953307,5.100389105058365,5.244876783398184,5.015045395590143,4.832166018158236,4.760051880674449,4.719325551232166,4.540077821011673,4.434241245136187,4.536446173800259,4.495460440985733,4.516990920881971,4.534370946822309,4.404150453955902,4.202594033722439,4.053437094682231,3.866407263294423,3.6726329442282752,3.542412451361868,3.3237354085603115,3.1579766536964984,3.020492866407263,2.9151750972762644,2.69935149156939,2.46485084306096,2.335408560311284,2.243839169909209,2.143709468223087,2.0381322957198442,1.927367055771725,1.861219195849546,1.871076523994812,1.8513618677042802,1.8487678339818419
2.7878080415045394,3.07704280155642,3.3763942931258106,3.6267185473411154,3.7120622568093387,3.8347600518806746,4.052658884565499,4.416342412451362,4.780544747081712,5.102204928664072,5.307392996108949,5.615823605706874,5.722697795071336,5.77094682230869,5.68249027237354,5.65343709468223,5.521141374837873,5.640466926070038,5.785214007782101,5.455512321660182,5.167833981841763,5.221530479896239,5.194033722438392,5.096238651102464,4.881452658884565,4.898054474708171,5.10272373540856,4.98780804150454,4.888975356679636,4.792736705577172,4.544747081712062,4.3405966277561605,4.190402075226978,4.020233463035019,3.8095979247730223,3.663553826199741,3.45810635538262,3.245395590142672,3.0604409857328143,2.825162127107652,2.5945525291828795,2.4472114137483785,2.294941634241245,2.183398184176394,2.064332036316472,1.9395590142671855,1.8487678339818419,1.8189364461738002,1.7756160830090792,1.7844357976653697
2.7735408560311283,2.9839169909208816,3.2596627756160834,3.5037613488975357,3.658365758754864,3.890272373540856,4.076005188067445,4.381582360570687,4.838132295719844,5.214526588845655,5.47367055771725,5.729182879377432,5.937743190661478,6.018158236057069,6.065110246433203,6.026977950713359,6.048508430609598,6.18651102464332,6.350194552529183,6.160570687418936,5.853955901426718,5.84461738002594,5.971206225680933,5.8775616083009075,5.463035019455253,5.387548638132295,5.524254215304799,5.4031128404669255,5.333592736705577,5.188586251621271,4.997405966277562,4.773540856031128,4.583398184176394,4.3678339818417635,4.162386511024643,3.9945525291828794,3.7559014267185473,3.4350194552529185,3.1725032425421533,2.9265888456549933,2.7143968871595328,2.4811932555123217,2.366277561608301,2.279118028534371,2.1712062256809337,2.025940337224384,1.8915693904020752,1.7942931258106356,1.772762645914397,1.7133592736705578
2.6409857328145265,2.8456549935149154,3.083527885862516,3.290791180285344,3.635538261997406,4.056290531776913,4.2861219195849545,4.615823605706874,4.9478599221789885,5.299610894941634,5.559014267185473,5.821271076523995,6.126070038910505,6.368352788586252,6.461219195849546,6.376134889753567,6.492088197146563,6.583138780804151,6.746822308690013,6.683268482490273,6.482490272373541,6.684565499351492,6.815045395590143,6.354085603112841,5.966536964980544,5.8791180285343705,5.896498054474708,5.870557717250324,5.749416342412451,5.579507133592736,5.381063553826199,5.204409857328145,4.9413748378728926,4.6498054474708175,4.459403372243839,4.192217898832685,3.8734111543450065,3.6119325551232166,3.326070038910506,3.0728923476005185,2.856549935149157,2.58651102464332,2.412451361867704,2.270817120622568,2.1488975356679636,2.0217898832684824,1.9341115434500649,1.8575875486381324,1.785473411154345,1.658365758754864
2.4739299610894943,2.7224383916990917,2.906614785992218,3.230609597924773,3.6752269779507136,3.918547341115435,4.285862516212711,4.541634241245136,4.831387808041504,5.119844357976653,5.541634241245136,5.860440985732814,6.126329442282749,6.4783398184176395,6.6931258106355385,6.762127107652399,6.884046692607004,6.927367055771725,7.063294422827497,7.038132295719844,6.938780804150454,7.2845654993514914,7.186770428015564,6.7364461738002595,6.58443579766537,6.434241245136187,6.347341115434501,6.2555123216601825,6.195071335927366,6.0153047989623865,5.737224383916991,5.51621271076524,5.283009079118028,4.954604409857328,4.660181582360571,4.416083009079118,4.123994811932555,3.8090791180285346,3.4557717250324256,3.206485084306096,2.968871595330739,2.7037613488975354,2.4827496757457848,2.2749675745784694,2.156160830090791,2.0477302204928662,1.9447470817120622,1.8594033722438392,1.7821011673151752,1.7086900129701688
2.3987029831387807,2.7086900129701683,2.9548638132295717,3.343709468223087,3.6526588845654997,3.9763942931258107,4.37094682230869,4.672373540856031,4.856290531776913,5.148897535667963,5.555642023346303,5.886381322957198,6.209597924773021,6.577950713359274,6.8036316472114144,6.993774319066148,7.148897535667964,7.2588845654993515,7.392996108949417,7.460440985732815,7.61348897535668,7.8661478599221795,7.584695201037614,7.411673151750973,7.392736705577173,7.189105058365759,6.888715953307393,6.681193255512322,6.605706874189365,6.429312581063554,6.120881971465629,5.80337224383917,5.580025940337224,5.258365758754864,4.989364461738003,4.733592736705577,4.394293125810636,4.0345006485084305,3.680933852140078,3.3810635538261997,3.099092088197146,2.785214007782101,2.572243839169909,2.3974059662775615,2.240466926070039,2.0957198443579768,1.9974059662775616,1.906614785992218,1.8274967574578471,1.7286640726329443
2.3686121919584955,2.7297016861219197,3.087937743190661,3.392217898832685,3.5846952010376136,3.932555123216602,4.321919584954604,4.76420233463035,5.147600518806744,5.47367055771725,5.927626459143968,6.291309987029832,6.867444876783399,6.8964980544747085,6.877042801556421,7.030869001297017,7.178210116731518,7.392996108949417,7.709987029831388,7.852399481193256,8.069520103761349,8.29935149156939,8.166018158236056,8.142412451361867,8.11491569390402,7.844617380025941,7.4012970168612195,7.151750972762646,6.999481193255512,6.78780804150454,6.519066147859923,6.278080415045396,5.996108949416342,5.62775616083009,5.411932555123216,5.016342412451362,4.7011673151750974,4.345006485084306,3.9118028534370946,3.6085603112840468,3.238910505836576,2.9195849546044097,2.7333333333333334,2.5297016861219195,2.3198443579766534,2.2007782101167317,2.1094682230869,2.001556420233463,1.8832684824902723,1.769649805447471
2.50609597924773,2.7571984435797665,3.064332036316472,3.2887159533073933,3.5992217898832686,3.924513618677043,4.181322957198443,4.878599221789883,5.116990920881971,5.706874189364461,6.32088197146563,6.996108949416342,7.55201037613489,7.172762645914397,7.010635538261997,7.073151750972763,7.211154345006485,7.502983138780804,7.809857328145266,8.125551232166018,8.39455252918288,8.630869001297016,8.759014267185472,8.757976653696497,8.688197146562905,8.54059662775616,8.011154345006485,7.63916990920882,7.415564202334631,7.148897535667964,7.0103761348897535,6.838132295719845,6.552529182879378,6.153307392996108,5.792217898832685,5.407263294422827,5.007003891050584,4.561867704280155,4.126329442282749,3.7398184176394293,3.3605706874189365,3.0902723735408557,2.866147859922179,2.619714656290532,2.4459143968871593,2.330998702983139,2.2031128404669262,2.064332036316472,1.9286640726329443,1.7940337224383918
2.5476005188067443,2.7377431906614786,2.922178988326848,3.193774319066148,3.504798962386511,3.772503242542153,4.0632944228274965,4.511802853437095,5.2588845654993515,5.750453955901427,6.311802853437095,7.14526588845655,7.700129701686122,7.203891050583658,7.151750972762646,7.186251621271077,7.288197146562905,7.535667963683528,7.902464332036317,8.379247730220493,8.777172503242543,9.0526588845655,9.273411154345006,9.255771725032425,9.224643320363164,9.11828793774319,8.789364461738003,8.373540856031129,7.959273670557717,7.654993514915694,7.48378728923476,7.283009079118028,6.990661478599222,6.549416342412452,6.1291828793774314,5.709987029831387,5.269520103761349,4.8166018158236055,4.346562905317769,3.921400778210117,3.5182879377431906,3.227496757457847,2.9600518806744485,2.7584954604409857,2.603112840466926,2.4197146562905316,2.2479896238651103,2.0861219195849543,1.9416342412451362,1.8124513618677043
2.3683527885862516,2.5909208819714658,2.85136186770428,3.143968871595331,3.416342412451362,3.7639429312581063,4.1660181582360565,4.584695201037613,5.1740596627756155,5.709727626459143,6.397405966277562,7.49935149156939,7.596368352788587,7.2347600518806745,7.219195849546044,7.232944228274968,7.394811932555124,7.6352788586251625,8.057068741893644,8.475486381322957,8.759792477302204,9.289494163424123,9.817380025940336,9.977172503242542,10.103242542153048,9.92762645914397,9.627237354085603,9.281452658884564,8.726848249027237,8.205706874189364,7.921919584954605,7.701945525291829,7.4783398184176395,6.9623865110246435,6.530739299610896,6.150972762645914,5.632684824902723,5.123476005188067,4.592477302204928,4.16083009079118,3.71958495460441,3.3699092088197147,3.1252918287937748,2.864591439688716,2.633722438391699,2.4277561608300906,2.2461738002594034,2.086381322957198,1.9439688715953307,1.7963683527885863
2.281971465629053,2.5392996108949415,2.826977950713359,3.1400778210116735,3.4817120622568094,3.8607003891050584,4.163424124513618,4.547859922178988,5.01219195849546,5.723735408560311,6.477561608300908,7.2459143968871595,7.636835278858626,7.514137483787289,7.463813229571985,7.364721141374838,7.523476005188067,7.713359273670558,8.110246433203631,8.529182879377432,8.893644617380026,9.348119325551233,9.888975356679637,10.775616083009078,11.665369649805447,11.65136186770428,10.915434500648509,10.134111543450064,9.451621271076524,8.704539559014266,8.266666666666666,8.26018158236057,8.013229571984436,7.449027237354086,6.969649805447471,6.431387808041505,5.897016861219195,5.361608300907911,4.801815823605707,4.300129701686122,3.8653696498054475,3.553826199740597,3.254215304798963,2.9245136186770426,2.65473411154345,2.421011673151751,2.219714656290532,2.067185473411154,1.9084306095979249,1.7621271076523997
2.229312581063554,2.4796368352788587,2.757976653696498,3.1118028534370943,3.4928664072632944,3.808560311284047,4.155382619974059,4.492607003891051,5.022568093385214,5.44124513618677,6.024124513618677,6.647211413748379,7.3805447470817125,7.352788586251622,7.146303501945526,7.3356679636835285,7.277821011673152,7.655252918287938,8.060700389105058,8.489753566796368,8.96083009079118,9.3431906614786,9.808041504539558,10.870038910505835,12.495979247730222,12.813229571984436,12.3852140077821,11.125551232166018,9.806485084306095,9.028274967574578,8.720103761348897,8.690272373540855,8.33592736705577,7.869001297016862,7.449805447470817,6.958495460440986,6.348897535667964,5.68923476005188,5.052399481193255,4.524513618677043,4.155642023346303,3.8332036316472116,3.506355382619974,3.163164721141375,2.86147859922179,2.5665369649805445,2.3571984435797666,2.1382619974059662,1.9138780804150455,1.7512321660181582
2.2552529182879377,2.4892347600518807,2.7016861219195847,2.9870298313878076,3.274708171206226,3.571206225680934,3.9400778210116734,4.255512321660182,4.700389105058366,5.247211413748379,5.965239948119325,6.69727626459144,6.883268482490273,6.592996108949417,6.1916990920881965,6.465110246433204,6.695719844357977,7.290272373540856,7.844098573281453,8.357976653696497,8.78443579766537,9.224902723735408,9.538002594033722,10.30350194552529,11.901167315175096,12.84928664072633,12.639429312581065,11.397665369649804,10.018158236057069,9.456290531776913,9.190661478599221,8.970168612191959,8.657846952010376,8.395330739299611,8.344487678339817,7.935408560311284,6.808819714656291,6.127107652399481,5.3839169909208815,5.088197146562905,4.535667963683528,4.153307392996108,3.7504539559014267,3.3846952010376135,3.046173800259403,2.7252918287937744,2.4516212710765237,2.187029831387808,1.9771725032425422,1.7810635538261999
2.222827496757458,2.4404669260700387,2.6269779507133593,2.8635538261997406,3.132814526588846,3.4124513618677046,3.684306095979248,4.14059662775616,4.7732814526588845,5.355642023346303,5.906874189364461,6.040726329442283,6.333592736705578,6.188067444876783,5.545525291828794,5.8373540856031125,6.305577172503243,6.707911802853437,7.179766536964981,7.860700389105059,8.356420233463034,8.825940337224385,9.184176394293125,9.48586251621271,11.176134889753566,12.70064850843061,12.16290531776913,11.109987029831387,10.208300907911802,9.628015564202334,9.298054474708172,9.021530479896239,8.895460440985733,8.978210116731518,9.112062256809338,8.652658884565499,7.164461738002594,6.258365758754865,6.41011673151751,5.633722438391699,5.006225680933852,4.388326848249028,3.9035019455252917,3.488715953307393,3.1382619974059667,2.794811932555123,2.49390402075227,2.2446173800259404,2.001556420233463,1.7779507133592738
2.166018158236057,2.362645914396887,2.5618677042801554,2.810635538261997,3.04798962386511,3.350453955901427,3.678080415045396,4.05136186770428,4.429571984435798,4.674448767833982,4.817898832684825,7.202594033722439,7.594811932555124,7.376653696498055,4.812451361867704,5.439429312581063,5.7364461738002595,5.884824902723735,6.501945525291829,7.088197146562906,7.690272373540856,8.213748378728923,8.539299610894941,8.631906614785992,9.659403372243839,10.395071335927367,10.574837872892347,10.34059662775616,9.981841763942931,9.61011673151751,9.265888456549934,9.066147859922179,9.043839169909209,9.23994811932555,10.025940337224384,9.362386511024644,7.534630350194552,7.877561608300908,7.19662775616083,6.057846952010376,5.2155642023346305,4.590142671854734,4.107392996108949,3.640466926070039,3.1992217898832687,2.816083009079118,2.497016861219196,2.219455252918288,1.9670557717250325,1.742153047989624
2.1315175097276264,2.309208819714656,2.513099870298314,2.691309987029831,2.957717250324254,3.276523994811933,3.5320363164721145,3.773800259403372,4.0889753566796365,4.3133592736705575,7.421011673151751,8.848508430609598,6.493385214007782,5.544228274967574,4.618158236057068,4.94189364461738,5.357198443579766,6.205706874189364,5.83450064850843,6.539299610894942,6.807782101167316,7.168352788586252,7.7924773022049285,8.10064850843061,8.630609597924773,8.807003891050584,9.3094682230869,9.543190661478599,9.334889753566797,9.353047989623866,9.059662775616083,8.921141374837873,8.943968871595331,9.19195849546044,9.91958495460441,9.661738002594033,8.675226977950713,8.290531776913099,7.219195849546044,6.24124513618677,5.4542153047989625,4.803631647211414,4.214526588845655,3.7058365758754865,3.2575875486381327,2.8440985732814523,2.48378728923476,2.1732814526588844,1.9156939040207523,1.6941634241245138
2.1138780804150454,2.3053177691309985,2.438651102464332,2.5603112840466924,2.7937743190661477,3.078339818417639,3.3208819714656292,3.5623865110246435,3.802075226977951,6.111802853437094,6.263294422827498,5.986251621271077,6.273411154345007,5.870038910505836,4.775616083009079,4.5473411154345005,5.29260700389105,5.80544747081712,5.822827496757458,6.572503242542154,6.579766536964981,6.4607003891050585,6.745784695201038,7.673929961089494,7.979766536964981,8.28793774319066,8.81815823605707,8.992477302204929,8.93514915693904,8.961348897535668,8.802853437094683,8.615304798962386,8.692866407263294,8.898832684824903,9.008560311284047,8.934370946822309,8.459662775616083,7.8905317769131,7.203891050583658,6.327885862516213,5.564461738002594,4.785214007782101,4.139040207522697,3.6334630350194552,3.2316472114137484,2.8503242542153044,2.51284046692607,2.1979247730220495,1.9169909208819715,1.6456549935149158
2.078339818417639,2.2155642023346305,2.323476005188067,2.4747081712062258,2.7211413748378726,2.9214007782101166,3.1642023346303505,3.308690012970169,3.7961089494163427,4.790661478599222,4.255771725032425,4.324254215304799,4.797405966277561,6.042801556420233,4.739818417639429,4.110765239948119,5.580285343709468,4.509208819714656,5.498832684824903,6.519066147859923,6.977431906614786,8.141374837872892,6.909987029831388,6.832944228274968,7.332036316472115,7.844876783398185,8.297276264591439,8.32503242542153,8.34941634241245,8.46147859922179,8.502983138780804,8.361348897535667,8.261478599221789,8.339818417639428,8.383657587548639,8.195849546044098,8.021271076523995,7.5328145265888455,6.919844357976654,6.304798962386512,5.690531776913099,5.023346303501945,4.371206225680933,3.7333333333333334,3.22905317769131,2.816083009079118,2.460181582360571,2.176913099870298,1.919325551232166,1.6666666666666667
1.9367055771725032,2.076783398184176,2.266147859922179,2.4687418936446175,2.611154345006485,2.828793774319066,2.998184176394293,3.107133592736705,3.9042801556420232,3.730739299610895,3.4819714656290532,3.5496757457846955,3.595590142671855,4.4848249027237355,3.780804150453956,3.92295719844358,5.074708171206225,3.945525291828794,4.8469520103761345,5.959014267185473,5.9143968871595325,6.633203631647212,6.041504539559014,6.127367055771725,6.618936446173801,7.15875486381323,7.510246433203632,7.493385214007782,7.707133592736706,8.047470817120622,8.010635538261997,7.9045395590142675,7.811932555123216,7.728145265888457,7.635019455252919,7.602853437094683,7.52503242542153,7.247730220492866,6.749416342412451,6.212710765239947,5.600518806744487,4.973281452658885,4.370687418936446,3.80337224383917,3.240207522697795,2.7654993514915693,2.412451361867704,2.1214007782101167,1.8666666666666667,1.6072632944228276
1.7909208819714657,2.0075226977950713,2.181582360570687,2.2879377431906613,2.398443579766537,2.6121919584954605,2.8876783398184176,3.0760051880674446,3.7312581063553827,3.2378728923476006,3.1626459143968875,3.287678339818418,3.2791180285343713,3.9559014267185475,3.3076523994811935,3.7042801556420235,4.034241245136187,4.127626459143968,6.452918287937743,5.1691309987029825,5.208819714656291,4.815304798962386,5.050064850843061,5.889753566796368,5.77976653696498,6.253177691309988,6.61686121919585,6.7717250324254215,7.236575875486381,7.514915693904021,7.416601815823606,7.381582360570688,7.2090791180285345,7.051361867704281,6.968612191958496,6.908949416342413,6.809079118028535,6.76757457846952,6.468482490272374,6.08923476005188,5.5826199740596625,5.047730220492866,4.491309987029831,3.877561608300908,3.3105058365758757,2.8357976653696495,2.4230869001297015,2.0568093385214006,1.8005188067444877,1.5810635538262
1.7063553826199742,1.846952010376135,2.0121919584954604,2.0822308690012967,2.2671854734111543,2.482230869001297,2.7800259403372243,2.9699092088197143,3.1066147859922175,2.9468223086900127,2.9356679636835277,2.971984435797665,3.5258106355382623,3.7055771725032427,2.917769130998703,3.27496757457847,3.3478599221789884,4.699351491569391,5.483009079118029,4.995849546044099,4.692607003891051,4.082230869001297,4.39455252918288,5.289494163424124,5.159273670557717,5.557717250324254,5.9032425421530474,6.155901426718547,6.610635538261998,6.680674448767834,6.808819714656291,6.735408560311284,6.5431906614786,6.394811932555124,6.414526588845655,6.295719844357977,6.215045395590142,6.240466926070038,6.159792477302204,5.831387808041504,5.488715953307393,5.04124513618677,4.468482490272374,3.9154345006485083,3.326070038910506,2.7831387808041503,2.3893644617380025,2.0830090791180282,1.8075226977950714,1.5201037613488975
1.5473411154345005,1.6622568093385215,1.8067444876783398,2.0121919584954604,2.098573281452659,2.2604409857328145,2.540077821011673,2.785214007782101,2.76757457846952,2.5569390402075225,2.6910505836575873,2.7712062256809338,3.1302204928664077,3.2303501945525293,3.0684824902723733,2.7795071335927366,3.0212710765239947,6.261738002594035,3.2754863813229576,3.690791180285344,3.6077821011673152,3.7540856031128405,4.0088197146562905,4.308690012970168,4.5151750972762645,5.117250324254215,5.389364461738002,5.649027237354085,5.846692607003891,5.928923476005187,6.196627756160829,6.1610894941634236,6.040207522697795,5.910246433203631,5.899610894941634,5.710246433203631,5.737483787289235,5.817898832684825,5.722438391699092,5.600778210116731,5.307911802853437,4.905058365758754,4.373281452658884,3.837094682230869,3.266407263294423,2.7504539559014267,2.3994811932555122,2.1040207522697796,1.7875486381322958,1.500129701686122
1.4090791180285342,1.5551232166018156,1.6607003891050585,1.7901426718547342,1.9704280155642024,2.1647211413748377,2.351491569390402,2.4972762645914397,2.623865110246433,2.559533073929961,2.3738002594033722,2.4394293125810633,2.8570687418936447,2.6311284046692607,2.549935149156939,2.4752269779507134,2.5828793774319063,2.5621271076523993,2.4067444876783397,2.617639429312581,2.863294422827497,3.2928664072632947,3.4814526588845656,3.57094682230869,4.016601815823606,4.538261997405966,4.853955901426718,5.08378728923476,5.197665369649806,5.356160830090791,5.632166018158236,5.686640726329442,5.5105058365758754,5.419455252918287,5.339559014267185,5.269001297016861,5.236835278858625,5.297535667963683,5.300648508430609,5.288975356679637,5.044876783398184,4.711543450064851,4.201556420233463,3.7201037613488976,3.2964980544747085,2.864591439688716,2.446433203631647,2.0700389105058363,1.757976653696498,1.478858625162127
1.3328145265888456,1.4033722438391698,1.4640726329442282,1.561608300907912,1.869260700389105,2.038651102464332,2.1766536964980543,2.218158236057069,2.279118028534371,2.242282749675746,2.1823605706874187,2.2238651102464333,2.241763942931258,2.0456549935149155,2.1382619974059662,2.046173800259403,2.8988326848249026,2.567315175097276,2.307392996108949,2.5665369649805445,2.572243839169909,2.8,3.3029831387808044,3.342153047989624,3.524773022049287,3.921141374837873,4.134370946822308,4.48041504539559,4.549156939040207,4.863294422827496,5.1162127107652395,5.17639429312581,5.125291828793774,5.108690012970168,4.968352788586252,4.8518806744487675,4.771465629053178,4.859143968871595,4.849805447470817,4.783657587548638,4.658365758754864,4.452399481193256,4.114137483787289,3.7800259403372243,3.4508430609597927,2.9115434500648507,2.443060959792477,2.0993514915693905,1.7608300907911805,1.532036316472114
1.2264591439688715,1.256290531776913,1.2744487678339818,1.4075226977950712,1.7024643320363166,1.9377431906614786,2.027496757457847,2.0422827496757456,2.0116731517509727,1.9309987029831388,1.9089494163424126,2.1631647211413747,2.197405966277562,1.878858625162127,1.8910505836575875,1.851880674448768,1.9922178988326849,1.998443579766537,2.0905317769130995,2.1556420233463034,2.307652399481193,2.471076523994812,2.997146562905318,2.93852140077821,3.1032425421530476,3.3797665369649805,3.5916990920881973,3.8975356679636834,3.9284046692607006,4.387029831387808,4.664591439688716,4.860440985732814,4.897535667963683,4.741634241245136,4.5761348897535665,4.380544747081712,4.342671854734111,4.421530479896239,4.338780804150454,4.241504539559014,4.208300907911803,4.113359273670557,4.059922178988327,3.8529182879377433,3.558495460440986,3.0492866407263293,2.511024643320363,2.081971465629053,1.817639429312581,1.5662775616083011
1.1548638132295719,1.177431906614786,1.100129701686122,1.298573281452659,1.5455252918287936,1.7559014267185473,1.8350194552529184,1.837354085603113,1.8150453955901427,1.685343709468223,1.6796368352788587,1.796887159533074,1.700389105058366,1.7009079118028536,1.6088197146562906,1.606485084306096,1.7797665369649807,1.8178988326848249,1.8705577172503243,1.8804150453955901,2.0249027237354085,2.1504539559014266,2.2236057068741895,2.4428015564202332,2.7128404669260697,2.9149156939040206,3.1260700389105063,3.3009079118028537,3.424383916990921,3.9411154345006487,4.202594033722439,4.4334630350194555,4.56083009079118,4.412191958495461,4.236835278858625,4.007522697795071,3.9618677042801558,3.96757457846952,3.8443579766536966,3.7792477302204928,3.7649805447470817,3.7776913099870297,3.8778210116731517,3.7507133592736706,3.534370946822309,3.147341115434501,2.580025940337224,2.143190661478599,1.8298313878080417,1.582360570687419
1.1068741893644618,1.0609597924773022,1.0093385214007782,1.1688715953307394,1.3367055771725032,1.6215304798962387,1.614526588845655,1.7014267185473413,1.6762645914396888,1.5377431906614785,1.4832684824902722,1.5413748378728922,1.4830090791180284,1.4329442282749676,1.4044098573281452,1.4894941634241243,1.6101167315175098,1.6383916990920884,1.6900129701686122,1.7286640726329443,1.8251621271076524,1.8881971465629053,1.9559014267185473,2.0700389105058363,2.2153047989623866,2.472892347600519,2.76757457846952,3.0134889753566796,3.116731517509727,3.492088197146563,3.8057068741893647,3.893385214007782,4.142153047989623,4.142153047989623,3.982619974059663,3.6975356679636837,3.604928664072633,3.5914396887159534,3.5195849546044102,3.4171206225680937,3.4492866407263296,3.480674448767834,3.5592736705577175,3.5852140077821013,3.2415045395590143,2.9372243839169907,2.5963683527885864,2.1763942931258105,1.8272373540856033,1.5691309987029833
1.0560311284046693,0.9447470817120622,0.9245136186770428,1.0762645914396887,1.027237354085603,1.211154345006485,1.4669260700389104,1.4856031128404668,1.5167315175097276,1.409597924773022,1.3444876783398183,1.4184176394293124,1.4005188067444876,1.335408560311284,1.3307392996108949,1.4155642023346302,1.4695201037613488,1.4941634241245136,1.5066147859922179,1.5206225680933851,1.5455252918287936,1.6223086900129702,1.726070038910506,1.7891050583657588,1.8905317769130998,2.1654993514915692,2.3810635538261997,2.7447470817120623,2.898573281452659,3.2153047989623866,3.332295719844358,3.4604409857328147,3.845654993514916,3.7797665369649804,3.5948119325551233,3.3753566796368353,3.2658884565499355,3.2287937743190662,3.224643320363165,3.086381322957198,3.1063553826199737,3.1258106355382624,3.1338521400778214,3.0684824902723733,3.0298313878080414,2.898573281452659,2.556420233463035,2.1605706874189363,1.8472114137483788,1.5994811932555124
1.0246433203631646,0.9229571984435798,0.8695201037613489,0.8785992217898833,0.8347600518806745,0.9792477302204928,1.1833981841763943,1.2549935149156939,1.2827496757457846,1.282230869001297,1.2415045395590143,1.300129701686122,1.264591439688716,1.2443579766536965,1.2824902723735407,1.343450064850843,1.3639429312581064,1.3813229571984436,1.3675745784695201,1.357717250324254,1.3348897535667963,1.380544747081712,1.4936446173800257,1.5317769130998702,1.671076523994812,1.853437094682231,1.956420233463035,1.9431906614785992,2.4472114137483785,2.739040207522698,2.8881971465629053,3.2300907911802854,3.4448767833981844,3.5105058365758754,3.217639429312581,3.0342412451361866,2.910765239948119,2.877561608300908,2.9182879377431905,2.783398184176394,2.7639429312581063,2.833203631647211,2.823605706874189,2.7504539559014267,2.852399481193255,2.806225680933852,2.541374837872892,2.283527885862516,1.8739299610894942,1.60337224383917
0.9193255512321661,0.8900129701686122,0.8012970168612192,0.7916990920881972,0.8025940337224384,0.8915693904020753,0.9639429312581064,1.0653696498054475,1.1188067444876784,1.187029831387808,1.1738002594033723,1.1405966277561608,1.1639429312581064,1.1460440985732814,1.161089494163424,1.1771725032425422,1.180544747081712,1.2588845654993515,1.2360570687418937,1.2025940337224383,1.190402075226978,1.2267185473411153,1.2783398184176393,1.375875486381323,1.5343709468223086,1.5719844357976656,1.469260700389105,1.6671854734111544,2.0635538261997404,2.170428015564202,2.6269779507133593,2.787029831387808,3.1613488975356683,3.3670557717250325,2.9758754863813226,2.702983138780804,2.623865110246433,2.602075226977951,2.629312581063554,2.504798962386511,2.447730220492866,2.5488975356679635,2.533333333333333,2.4702983138780805,2.4754863813229573,2.404409857328145,2.415823605706874,2.30609597924773,1.898573281452659,1.6280155642023348
0.8939040207522698,0.8407263294422828,0.7522697795071336,0.7437094682230868,0.7753566796368352,0.754863813229572,0.7795071335927366,0.8918287937743191,1.031906614785992,1.0604409857328145,1.0778210116731517,1.0163424124513618,1.0215304798962386,1.0324254215304798,0.998443579766537,0.9657587548638132,1.030609597924773,1.1229571984435798,1.1024643320363166,1.0778210116731517,1.0529182879377432,1.0775616083009079,1.1143968871595331,1.2171206225680933,1.3154345006485084,1.2549935149156939,1.2298313878080416,1.4762645914396886,1.7232166018158237,1.8767833981841764,1.9569390402075226,2.5094682230869,2.8150453955901424,3.0020752269779507,2.7574578469520103,2.416083009079118,2.4134889753566795,2.3608300907911803,2.335408560311284,2.2184176394293127,2.1808041504539557,2.2664072632944228,2.2202334630350196,2.140337224383917,2.1808041504539557,2.1380025940337224,2.1686121919584953,2.103501945525292,1.8503242542153049,1.6879377431906615
0.8876783398184177,0.856549935149157,0.7916990920881972,0.7099870298313877,0.7224383916990921,0.7022049286640726,0.6690012970168612,0.7859922178988328,0.982360570687419,0.9185473411154346,0.993514915693904,0.9141374837872893,0.8734111543450065,0.9188067444876784,0.8466926070038912,0.8396887159533074,0.9450064850843061,0.9662775616083009,0.978988326848249,0.9821011673151752,0.9543450064850844,0.961348897535668,0.964461738002594,1.001556420233463,1.0498054474708172,0.9660181582360571,1.0739299610894941,1.349935149156939,1.5011673151750973,1.5678339818417641,2.064072632944228,2.4487678339818415,2.4658884565499353,2.5699092088197144,2.581582360570687,2.267444876783398,2.212970168612192,2.1216601815823606,2.0311284046692606,1.9172503242542154,1.897016861219196,1.9538261997405966,1.9654993514915695,1.8736705577172503,1.9400778210116731,1.9309987029831388,1.8848249027237354,1.8402075226977952,1.9079118028534372,1.6817120622568094
0.7859922178988328,0.7779507133592736,0.7265888456549935,0.6744487678339818,0.6547341115434501,0.65810635538262,0.6313878080415045,0.6430609597924772,0.7206225680933852,0.7948119325551233,0.8137483787289236,0.8160830090791181,0.7769130998702982,0.7769130998702982,0.733852140077821,0.7496757457846952,0.7839169909208821,0.833981841763943,0.8791180285343709,0.8780804150453956,0.8513618677042802,0.8505836575875487,0.8342412451361868,0.8526588845654994,0.8363164721141375,0.7974059662775617,0.9870298313878081,1.1190661478599222,1.1787289234760052,1.4907911802853435,1.809857328145266,2.033463035019455,2.2993514915693902,2.307911802853437,2.3704280155642024,2.216342412451362,2.036575875486381,2.014526588845655,1.8321660181582362,1.6889753566796368,1.6508430609597926,1.6355382619974062,1.6926070038910506,1.6334630350194554,1.6347600518806746,1.6736705577172504,1.6648508430609599,1.735408560311284,1.7128404669260702,1.3574578469520102
0.7115434500648508,0.6765239948119325,0.6425421530479896,0.6106355382619973,0.6025940337224384,0.5800259403372243,0.5942931258106355,0.5924773022049287,0.5815823605706875,0.6282749675745785,0.6731517509727626,0.7408560311284046,0.7239948119325551,0.6850843060959793,0.6653696498054474,0.6539559014267186,0.650064850843061,0.725810635538262,0.7758754863813229,0.7859922178988328,0.7613488975356679,0.7115434500648508,0.6946822308690013,0.6845654993514916,0.6453955901426718,0.6565499351491569,0.7343709468223086,0.8443579766536965,1.0264591439688715,1.2264591439688715,1.4523994811932555,1.7896238651102465,2.038391699092088,2.031906614785992,2.1750972762645913,2.1491569390402074,1.9377431906614786,1.819455252918288,1.77431906614786,1.5504539559014265,1.4505836575875486,1.4300907911802854,1.4399481193255512,1.3929961089494163,1.3974059662775615,1.3971465629053177,1.4308690012970169,1.4409857328145266,1.4381322957198444,1.2523994811932555
0.6272373540856031,0.5844357976653697,0.574059662775616,0.5470817120622568,0.562905317769131,0.553307392996109,0.5395590142671854,0.5398184176394293,0.5369649805447471,0.5745784695201037,0.6342412451361867,0.6601815823605707,0.6311284046692607,0.6,0.6132295719844357,0.6049286640726329,0.6046692607003891,0.6352788586251621,0.6695201037613489,0.6933852140077821,0.650064850843061,0.6046692607003891,0.5922178988326848,0.5424124513618677,0.5071335927367056,0.47911802853437097,0.5522697795071336,0.7014267185473411,0.7940337224383918,0.972503242542153,1.2575875486381323,1.6023346303501946,1.5221789883268482,1.592217898832685,2.0202334630350194,1.9989623865110246,1.951491569390402,1.6998702983138783,1.598702983138781,1.349935149156939,1.2173800259403371,1.233981841763943,1.190142671854734,1.156420233463035,1.1813229571984436,1.167833981841764,1.1833981841763943,1.2365758754863814,1.275486381322957,1.336964980544747
0.5642023346303502,0.5198443579766536,0.5071335927367056,0.49286640726329445,0.5120622568093385,0.5268482490272374,0.48586251621271076,0.48119325551232167,0.5250324254215305,0.5590142671854734,0.5958495460440986,0.6044098573281452,0.5574578469520104,0.5372243839169909,0.5647211413748379,0.5610894941634241,0.5654993514915694,0.5810635538261998,0.5828793774319067,0.5730220492866407,0.5618677042801556,0.5278858625162127,0.5164721141374837,0.451621271076524,0.37094682230868997,0.3429312581063554,0.40415045395590143,0.46926070038910506,0.5893644617380026,0.7841763942931259,0.9714656290531777,1.293125810635538,1.1380025940337224,1.6334630350194554,1.8259403372243839,1.811413748378729,1.7107652399481195,1.7325551232166019,1.4508430609597924,1.122697795071336,1.0861219195849545,1.0482490272373541,0.9701686121919585,0.9395590142671855,0.9636835278858625,0.9559014267185474,1.0394293125810634,1.0845654993514915,1.0345006485084305,1.2277561608300906
0.535408560311284,0.4778210116731518,0.4632944228274968,0.45343709468223087,0.4635538261997406,0.49831387808041505,0.45758754863813234,0.4396887159533074,0.47263294422827495,0.545006485084306,0.6090791180285343,0.6108949416342412,0.5053177691309987,0.5022049286640726,0.5411154345006485,0.5333333333333333,0.527367055771725,0.5263294422827497,0.5201037613488975,0.4780804150453956,0.51284046692607,0.443579766536965,0.435538261997406,0.3916990920881972,0.26536964980544747,0.23553826199740596,0.2490272373540856,0.30894941634241246,0.4469520103761349,0.5579766536964981,0.7123216601815823,0.954863813229572,0.8814526588845656,1.1782101167315175,1.3792477302204929,1.5600518806744486,1.5198443579766536,1.4702983138780803,1.525810635538262,1.1198443579766537,0.9188067444876784,0.8612191958495461,0.8345006485084306,0.762905317769131,0.7966277561608301,0.8018158236057069,0.8708171206225681,0.8926070038910506,0.9001297016861219,0.9836575875486382
0.4972762645914397,0.44306095979247734,0.41530479896238653,0.40985732814526593,0.4376134889753567,0.45706874189364466,0.4337224383916991,0.3875486381322957,0.39948119325551235,0.45136186770428016,0.5214007782101167,0.5429312581063553,0.47496757457846955,0.4508430609597925,0.4767833981841764,0.503242542153048,0.4853437094682231,0.4682230869001297,0.44383916990920885,0.38210116731517507,0.4031128404669261,0.3841763942931258,0.3400778210116731,0.3219195849546044,0.2025940337224384,0.1530479896238651,0.15149156939040206,0.16679636835278858,0.2337224383916991,0.335408560311284,0.42594033722438396,0.6012970168612192,0.5916990920881972,0.8267185473411155,1.1099870298313879,1.1893644617380026,1.223865110246433,1.1234760051880675,1.3219195849546044,1.0350194552529182,0.7348897535667963,0.7042801556420233,0.6814526588845655,0.6453955901426718,0.6627756160830091,0.6539559014267186,0.6931258106355382,0.7372243839169909,0.764461738002594,0.782360570687419